ply
format ascii 1.0
element vertex 407
property float x
property float y
property float z
property uchar diffuse_red
property uchar diffuse_green
property uchar diffuse_blue
end_header
0.9369994194169802 3.770264983786279 0.9841917238847041 162 153 144
-0.4564008639687015 3.3371189227129787 1.4548143616947447 106 79 68
0.0981477676968647 5.004218901687126 0.9797915234464999 35 30 28
-0.7796814688747556 3.4553206978747006 1.1543688161937753 70 54 38
1.8606744603974468 3.9276315562698154 0.9234914844726769 88 78 72
1.2534902146829372 2.3259616586013236 -0.35248290999958887 187 174 158
0.04076771866416265 3.3763413282309993 1.509386420394546 105 86 69
0.9112644300571845 3.6898583008289254 1.0633457053529185 47 39 36
-0.027320851159196757 3.5569527303846553 1.1475896107143815 114 97 81
-0.5665205229503553 3.45488483099806 1.2111982198056541 91 73 53
0.4472556508320579 3.472253495901672 1.4228854986298058 157 145 136
-0.29707943743023096 3.3197361829669427 1.5350051237023106 88 71 53
-0.7447077922694376 2.893318385401557 0.2034175020012524 51 47 40
0.8226990504360853 3.8624925798729848 0.6752383248749279 190 176 164
0.024758932611252882 3.42394157965934 1.4188660963517274 99 82 66
0.7895060100818404 3.781151550414614 1.236016478045593 37 32 28
-0.2960354635194572 2.2683668372126258 -0.7562865588512734 154 132 96
-0.23107825306769153 3.442904549743562 1.3128130629642154 103 86 67
1.003279669847593 3.6920262396273578 1.737279224588351 60 51 44
0.44050211645164394 3.567610433954118 1.2442800659842166 105 89 78
-0.7188988595994436 3.4471494837775434 1.2058071925648466 78 59 43
0.9670711808453692 3.88100640501461 0.7608169755270203 174 164 154
0.42710387355205853 3.548895455276297 1.2954184226974592 159 150 137
-0.7626133933464698 2.316904523430816 -0.34637657732303057 220 221 215
0.19811919184277718 3.5540562841441905 1.2077728388251423 152 141 122
0.4555797083975781 3.5444403595511815 1.2928130716776602 57 47 43
-0.03262413884566208 3.4704896839679953 1.3044436948362215 79 63 48
0.046450169395169195 3.4213722972747407 1.4232703148057677 98 80 61
0.4472556508320579 3.472253495901672 1.4228854986298058 157 145 136
1.3860924428171038 3.7120148536929656 0.9379921796349826 110 28 19
-0.22028260505167888 3.4221967785395053 1.3585413948382203 100 81 63
-0.03131548173552849 3.379599761657323 1.490095294504094 103 84 69
-0.6633305114553655 3.4514429881788766 1.1896355395083023 91 73 49
1.0036244924020623 3.761173148030649 1.0078572811992543 106 92 81
0.1101657135154527 3.5424838972859805 1.203367517422712 115 96 83
-0.11796807338102216 3.4224338322405354 1.3750069281228474 98 81 63
1.09037043398053 3.8431153981191284 0.848328271165473 168 160 155
-1.019562273821263 3.284189855715286 1.4206950362183748 77 58 43
0.04635712428731272 3.5257646802283658 1.2389100409181957 135 123 103
0.0760788744420614 3.4221107498983 1.419084981350283 83 70 53
0.1101657135154527 3.5424838972859805 1.203367517422712 115 96 83
-0.23107825306769153 3.442904549743562 1.3128130629642154 103 86 67
0.16988852523082904 3.489375416934406 1.334122175771008 142 130 117
-0.6694217833070504 3.4397571322585687 1.2152886144787924 23 13 13
1.4256109976730096 3.687271093118309 0.6226029038426151 66 57 49
1.149933817966104 3.838376690522695 0.9058520864902976 152 145 137
-0.6935989551190538 3.496017678289557 1.1025296028486438 85 66 51
0.9827581427445276 3.714000160552786 1.0389182049053727 169 161 151
-0.5516030508424943 3.3882929763507783 1.337474983688923 89 71 52
-0.2939226492882416 3.3983311794488014 1.3800835191205187 112 91 74
0.2971039203792516 3.3797469600012273 1.5667724856568734 148 139 125
-0.6080223728722878 3.5251005637946475 1.0829239268725577 83 65 51
-0.23526191034346744 3.3221959168600086 1.530588513434631 105 87 64
0.3628155657743394 3.598280872959629 1.1731201104428304 153 143 130
1.192517955021701 2.6766615808516807 -0.928211854008821 91 78 66
0.09762826271240382 2.447926102474283 -0.17489129982741902 168 168 160
-0.1408004703210516 3.5183780540321936 1.211687359942533 84 68 52
-0.46346908379411506 3.380809709585394 1.371878408910386 102 84 62
-0.1769312446331105 3.3463578033290657 1.5115942666639124 114 94 75
0.02632217310390983 3.4731035731912936 1.3184151109742956 54 41 34
1.3225580666138226 3.582279142972743 0.5583266388571422 73 69 60
0.9111528017619398 2.9435967143265924 0.007093955369387471 54 45 31
0.9925687732299434 3.7681081822065514 1.6229364930617736 23 20 23
-0.8472998560141076 2.281074638271613 -0.3549506451012982 188 181 176
0.05901071370507698 3.472242853384349 1.3298595428128517 136 127 112
-0.7586353752167387 2.692192945425431 -0.19997085659092148 67 68 63
0.44022590777757353 3.4317787104306765 1.511829234399661 143 133 123
1.4007951910186023 3.7053720747899015 0.9741528523753189 136 36 25
0.9378147444170807 3.8124796523920406 0.869710811356771 171 161 154
1.1622118388975622 3.744114730469659 0.619997319506072 158 155 151
-0.46346908379411506 3.380809709585394 1.371878408910386 102 84 62
-0.8358400340271394 2.3363439798799615 -0.46802264318430314 55 49 45
-0.10706040619388946 3.379695316784783 1.4579716930700488 94 77 59
0.4266540293114254 3.5041047060596373 1.3710799820501811 155 142 132
0.9857793906429271 3.766565751129971 1.5844913376695942 36 32 26
-1.1209450782480535 3.392122027426545 0.9014672126714741 91 62 48
0.2697220777879998 3.4352955427570957 1.4232296288869322 152 143 128
0.9333046722832686 3.7357623093085337 1.6651946941534357 18 16 17
-1.038613878922873 3.301280396650081 1.3894088334593289 75 55 44
-0.6852100497711333 2.848536687697412 0.4803764282849309 106 26 17
0.31822349133692995 3.5353489376032194 1.2596728397097379 152 142 133
0.4105882456620831 3.5793728804415594 1.2322041663979084 154 145 132
1.0585990558130727 3.9189862459915936 0.7214876910128417 155 147 140
-0.29425499862924204 3.33269078240935 1.4923317576822328 100 82 62
-0.40018848761760695 2.444868941371747 -0.16991088584790848 139 136 131
0.2571537491708025 3.4818458001098 1.3591343224212828 145 131 109
0.9287912059715756 2.8976134807186655 -0.02078428799686956 189 180 163
1.4029078169110303 3.808189542093118 0.8540861381664344 133 27 21
-0.5205342281095046 2.4169987930341477 -0.6572314052406796 66 66 64
-0.5048837241202823 3.464147460606568 1.2180489892705522 97 78 63
-0.07580264810012045 3.410059670008766 1.4299065221565632 99 82 63
1.2417215780790603 2.3292647721276962 -0.32693173126904146 107 88 60
-0.1769312446331105 3.3463578033290657 1.5115942666639124 114 94 75
-0.27462639921800874 3.5502059503478693 1.1036641498220525 77 58 46
0.5184524813115483 3.5157296497079544 1.3904373384274322 159 149 134
-0.7554313113494381 2.744572982699951 0.42525976365234003 155 137 130
0.7408114100396355 2.385645727929068 -0.32813150700184185 188 177 158
-0.4250652200586101 3.4661216789797833 1.221678460961826 104 86 66
1.3069562704564603 3.574824054965793 0.5023103263399905 181 177 168
0.14120212172315483 3.5538878544299157 1.201066222722815 131 117 101
0.44050211645164394 3.567610433954118 1.2442800659842166 105 89 78
1.2213680549915433 3.765663012923898 1.3482904950817398 21 19 20
-0.6457900396895928 2.8960467483754115 0.4006481732977125 181 137 123
-0.6978337994582584 2.8379283736255934 0.06223883801608114 16 15 13
1.1484662440573787 3.7786414180731085 1.01711913287219 94 81 72
1.7300546765136529 3.8576977113462614 1.0128809460254293 159 150 145
-0.2272963651271358 3.550341363704173 1.114237736928005 56 42 31
0.04972964003218948 3.3963490192972507 1.473624799604365 72 54 42
1.3387984838532274 3.6740782936401986 1.268165479912885 136 134 133
1.220905060128815 2.3302391463110657 -0.30480209002536235 208 220 220
0.1763248740512608 3.4947200242998795 1.3176649454854428 152 140 128
0.12095820661381076 3.4760828431655684 1.334262787950068 123 110 96
0.4308498806253884 3.422685475491774 1.530307524287175 147 136 129
1.427382040501052 3.7562680786692018 0.8602230111357648 48 29 25
-0.15245552446609267 3.543968266146833 1.1399907817355097 98 80 58
-0.8384886936482849 3.4237819620401218 1.210568738438213 86 66 51
0.939576792649039 3.701689721888302 1.042451554925079 151 141 132
0.18671209426416327 3.5721888286759276 1.1728216286987725 152 138 125
-0.21274256279478607 3.4925508627851127 1.2147524031586567 95 76 59
1.7252236926530076 3.9125044938539575 0.9419385249208236 166 160 160
-0.1442295791997007 4.014932615935628 -0.9446845210129139 73 69 62
-0.9013127060725984 2.381292889655428 -0.22439984002226304 41 37 30
-0.42458995505177927 3.448648794794751 1.2597326178375046 96 77 61
0.49441383234074776 3.467200484047237 1.453467721916176 153 140 128
-0.5366371326906141 3.475029385085278 1.1787821876412437 90 73 54
1.1751507233174185 3.706979331756504 0.657097480324398 26 38 83
-0.02562847996653735 3.5108263480889437 1.2409320144032538 126 111 95
-0.1861048560867124 3.4900646062966265 1.2372202271233033 32 26 16
1.7499720481982697 3.8067781543610764 1.1410591249240982 48 44 41
0.7147726751894834 3.9271414621130987 0.6199577030628391 173 155 145
-1.0308722155993246 3.4650580783102107 1.125172700793534 45 33 24
0.6193030977308299 3.642770862330586 0.9709296454272064 107 89 80
1.5923025665669237 3.8044915243875237 1.0755396381582623 163 156 150
0.24717203401085225 3.3668534817085893 1.5754170450869058 151 139 127
-0.29090029841116444 3.5378286298833364 1.1238877294533556 79 60 47
0.19290376519021105 3.0312816812030854 0.345311896354183 211 135 43
0.9655963807508502 3.01331086093325 0.0406478600602803 178 175 156
-0.38598003790342866 2.2470383345579004 -0.7698872916998121 255 255 253
-0.09149419555740997 3.500222515899847 1.2468930076160991 53 39 31
0.05897269428457707 2.210494332509498 -0.23698001469561247 67 68 63
1.3387984838532274 3.6740782936401986 1.268165479912885 136 134 133
0.04855980216172209 2.461179097306848 -0.6582993946181933 45 38 32
-0.7842146113699251 2.6347519848790406 -0.007790101173677757 20 16 15
-0.013520938291449403 3.3667039897180038 1.5052288134411647 103 85 67
0.17860617369131848 2.86197685091068 0.2925370107113951 193 110 34
0.30261023496602096 2.6183235709745607 -0.8831403193757171 174 134 81
1.7407685499649326 3.9299368244410613 0.88267335061054 82 71 65
-0.5145674679969688 3.2855145757737816 1.5390256825023692 95 68 54
-0.0837878516922715 3.583200870578264 1.0831537149432824 139 126 117
0.04741253312820353 1.7880502027903995 -0.2125998534415407 63 63 57
-0.8079878597819665 2.4106382043891297 -0.19938990905948006 159 158 154
-1.0210555785096458 2.317554946060396 -0.3725929748663265 140 107 79
0.4623494802265658 3.532256551916114 1.3258211872314036 158 148 139
-0.11796807338102216 3.4224338322405354 1.3750069281228474 98 81 63
-0.5635598118341174 3.3261685453994705 1.4395578679335421 88 69 51
-0.5199493290845311 3.3499286388328127 1.4183648499779185 98 79 64
-0.22028260505167888 3.4221967785395053 1.3585413948382203 100 81 63
-0.7084141636409087 2.3973001521565727 -0.6165764464203456 69 65 62
-0.5875974735330198 3.447910588343921 1.2172618408275946 91 71 50
-0.6152308692220698 2.74002620319233 0.03530293266826932 78 73 66
-1.0078529314660267 3.4206939913414183 1.1971233294526278 52 37 28
-0.06291536524191553 3.511532144293796 1.2411076419644913 80 65 50
-1.1068393317605976 1.9923486599466678 0.08733161175300039 179 166 153
0.5040920330031328 3.519252020912421 1.3626126958030425 158 149 135
0.8245828578039168 2.4016411198460275 -0.34527421161499544 192 178 159
0.39315433984349907 3.629436929708267 1.1097414432009338 145 133 121
-0.7740396198516892 2.732881659546 0.4513334907576408 83 24 18
-1.1102381680360887 2.0065611584865373 0.06199302104569218 179 164 145
-0.09594725768838447 3.461250146426626 1.2945961907089218 105 86 64
1.1198482433711954 3.8702256292438886 1.3592422545712965 131 121 112
-1.1209450782480535 3.392122027426545 0.9014672126714741 91 62 48
-0.4025493167535223 3.365852561484108 1.4110712735241846 98 79 64
1.7746788977923638 3.930295179399461 0.901273433755836 106 94 90
0.22682093884720864 2.3768538605999585 -0.39224050399432797 201 197 186
-0.4974609729042778 2.3763359851533257 -0.6959386831460324 56 55 52
-0.8443892446349021 2.4212727176729545 -0.18337037654847868 23 18 14
-0.1113488229979305 3.9270169318594634 -0.5466816155386146 169 166 158
0.8091593247978031 3.8490265288282135 0.8183070626885888 185 180 174
-0.148796150688071 3.128729794496252 0.32590606386319276 209 127 43
-0.8052946007438911 3.4576469099245757 1.1624552145977833 76 60 45
-0.4245607773851518 2.3136313270868607 -0.7113713607926184 255 255 253
-0.5980312052492882 2.40578457211603 -0.6458823241153993 44 40 37
-0.7639024704327005 2.3229055962744587 -0.3842437505241034 184 171 162
-0.6694217833070504 3.4397571322585687 1.2152886144787924 23 13 13
0.8438835881741453 3.0335425541705754 0.05241217890055676 66 55 39
0.4623494802265658 3.532256551916114 1.3258211872314036 158 148 139
-0.3566610331880859 3.4354965367633783 1.3058743055192776 92 73 55
-0.5794349098935867 2.4285348576864867 -1.175679725268069 229 231 226
-0.3225112362128812 3.3719639380283826 1.4280429589708632 77 58 41
-0.5926659890656809 2.965740831310451 0.33482389856418027 143 37 23
0.1285105081335299 3.417426229837146 1.4525310024981117 81 68 52
0.8744857664075685 2.401060033557627 -0.34440100346786856 191 178 165
-0.004669691914461496 3.45877253639703 1.340439915916919 53 41 27
-0.3566610331880859 3.4354965367633783 1.3058743055192776 92 73 55
-0.33910636155745594 2.25793484420128 -0.7519265891029804 232 230 225
-0.5815372721234873 3.379833357252934 1.3443273722561735 90 73 53
0.8363317016271923 3.7157984295871684 1.028001212291665 174 166 155
0.8156096209581793 3.0003543759251396 0.028273528536529997 189 183 168
-0.0014442204912601122 1.9889918125017358 -0.2905802092769158 198 198 190
0.12908345177570096 3.5843447800134123 1.143344995782211 143 127 111
0.18951329609641332 3.5357708732675333 1.241976154925206 146 133 122
-0.5056354068209289 3.3007373290823496 1.5105567831109323 101 75 60
1.7559474303261642 3.897750535878942 0.9414774998222188 105 96 90
1.0645203383901172 3.78163876813813 1.3960566203096196 32 24 22
0.5051290364806807 3.5586816348588477 0.9927345727812104 23 21 18
-0.44624872399299786 3.40804921067646 1.3192953288498641 75 57 43
-0.5205342281095046 2.4169987930341477 -0.6572314052406796 66 66 64
0.25300012194500887 3.407160852110155 1.52767715172183 137 128 113
0.29303776082284816 3.3962041644996663 1.5334851784293988 87 70 63
1.6508227454641784 3.801490076824467 1.096980184852778 165 158 150
-0.6304415335708102 3.491432983381726 1.1335126704483562 78 61 45
-0.5638135693172266 2.408112284173066 -0.6705154374074319 53 52 49
-0.5056354068209289 3.3007373290823496 1.5105567831109323 101 75 60
-0.5381360124821374 2.339697217552572 -0.7095520564629131 238 238 235
0.2784536764879514 3.474480994694138 1.366638686182341 156 140 126
0.6759542761851922 3.9259800894805794 0.6029341156027592 172 159 147
-0.6412955276505815 2.9153035737830844 0.32860545715210243 164 102 87
-0.3770208753268929 3.935423172142707 -0.5598906843223872 159 149 139
0.7329265684975197 3.7886887311801694 0.7143294226274445 184 175 165
0.4361285785404026 3.581579574417202 1.2133284976295635 149 139 129
-0.7906280454018703 2.3158002809113967 -0.33009074942151345 59 59 54
-0.30395179060456534 3.479106176528223 1.2259890972029373 59 45 33
1.2031494835665133 3.720900163408538 1.0920268044263488 35 32 31
-0.0847636024924086 1.9673384223520345 -0.32167416656823605 237 236 229
0.8297090511303602 3.8972871333061545 0.5873399838556329 175 158 146
0.971509936439269 2.8741838040773096 -0.03354205136257056 194 184 169
-0.431623432754767 2.3122702606989476 -1.022034668427001 207 200 192
-0.09177754130459329 3.5572041752663597 1.1342440108210654 144 131 116
0.7766306484560584 2.4157562815290077 -0.3556151665385727 187 171 151
0.04635712428731272 3.5257646802283658 1.2389100409181957 135 123 103
0.06869039127204052 3.510598160617149 1.2647740107112178 101 85 75
-0.14882054713136333 3.4907880178434567 1.2738586275813049 102 84 62
0.2477346830169056 3.4326840414061164 1.4658222537729808 155 145 133
0.18671209426416327 3.5721888286759276 1.1728216286987725 152 138 125
-0.6412955276505815 2.9153035737830844 0.32860545715210243 164 102 87
-0.34286047876995507 3.403854153336661 1.3668217195316752 100 79 63
0.11484620697775967 3.5553438732853295 1.1935083606241497 89 71 66
0.9436368326891832 3.695906559776954 1.1083393919893043 164 160 154
-0.5635598118341174 3.3261685453994705 1.4395578679335421 88 69 51
-0.7015287190818766 3.524542052556162 1.0571288818938298 64 47 37
-0.04802215912751383 2.4876663842658604 -0.15549815445589568 51 51 47
-0.5033994595153316 3.4265046787595503 1.2657866909612183 88 72 54
-0.3760632414780657 3.3264249783478275 1.4988834528638173 50 37 26
-1.0210555785096458 2.317554946060396 -0.3725929748663265 140 107 79
1.463287957616107 3.762622020743725 1.0991793713397306 20 17 16
0.0704979212368542 3.4006992115734804 1.423303760324911 81 67 52
0.2643857000158776 3.5861680893589063 1.1663220595253003 154 145 130
1.6975465589116112 3.8180881245457967 1.0580195542799766 166 162 155
0.35884660960098685 3.521342532503898 1.3763482299345005 157 144 135
-0.13751900702635528 3.581758827585368 1.0751187602689394 128 115 99
0.35565807297357205 3.576100550106267 1.2050856198232451 157 149 138
0.00683814953240372 3.428091546303007 1.39683585265588 78 64 48
-0.027320851159196757 3.5569527303846553 1.1475896107143815 114 97 81
1.130498860840159 3.934447544196097 0.8357418643855373 167 163 154
1.2347084391643384 3.744242243195656 0.7727666948502634 167 162 156
1.7171548435768829 3.9282129008491924 0.9001093192118079 159 154 152
-0.8608734936278647 2.3921556152089316 -0.2083742097415437 165 164 160
-0.540683202855661 2.418967126051517 -0.6460843960933584 42 41 39
-0.5875974735330198 3.447910588343921 1.2172618408275946 91 71 50
-0.8358400340271394 2.3363439798799615 -0.46802264318430314 55 49 45
0.5347800036356476 2.5686745881315303 -0.6238607727087288 41 38 33
0.3433573779033148 3.6355123208115487 1.098620307131581 131 120 109
0.04972964003218948 3.3963490192972507 1.473624799604365 72 54 42
0.23812501334872135 3.3796408362022627 1.5564220547625263 35 24 23
0.19715654005600833 3.4425039729399884 1.4157331480164173 152 141 127
-0.21036061207531973 3.329102151535916 1.5374249554341681 115 94 70
0.16505935616644685 3.436758874282443 1.3997711098944485 101 89 78
-0.3921365741053238 3.450435668408698 1.2768273818274882 82 65 49
0.13313339143885972 3.585458966324794 1.131061586014227 151 136 121
-0.17732953590298325 3.4466063736083856 1.3048444615051138 79 62 43
-0.8727950107531622 3.4837941905450758 1.1140457249713478 71 58 41
1.025401854355588 3.86620688545587 0.7928570763729081 171 164 156
1.1198482433711954 3.8702256292438886 1.3592422545712965 131 121 112
-0.8097814863325519 2.7541214752671146 0.4314035776647093 129 82 50
0.9073926657623311 2.9148379319678224 -0.023151053591883762 104 89 65
0.04391840933945223 2.307344176072057 -0.645075860669419 86 67 44
0.11981675162106592 3.446778862066707 1.4042631787564601 110 98 84
-0.7586353752167387 2.692192945425431 -0.19997085659092148 67 68 63
-0.8384886936482849 3.4237819620401218 1.210568738438213 86 66 51
1.5994959878464448 3.8305493723082007 0.9295279157454648 151 146 143
-0.7667073147799367 2.355861515632903 -0.6539795458672353 64 59 60
1.2906302594098564 3.592063360667492 1.0484876477645242 19 16 15
-0.013520938291449403 3.3667039897180038 1.5052288134411647 103 85 67
-0.2595512316175764 3.4626669985823693 1.2682141279503838 102 85 67
-0.3760632414780657 3.3264249783478275 1.4988834528638173 50 37 26
0.7050984569418465 3.89952186260788 0.6495354319352956 112 86 68
-0.2275480914323741 3.44233419084853 0.9594305307140369 174 166 159
0.7965602077301135 3.946341717669843 0.5887897224742886 169 154 145
-0.4169035990527118 2.4381046749357296 -0.1930622484168549 139 136 131
-0.6199165681971778 2.913203236959154 0.37693433411686 141 41 23
-0.3378684949706511 3.498740904036864 1.1920915494403062 60 43 33
1.2090174297268206 2.631614648146391 -0.9428445273290663 63 54 45
-0.05081964808455923 1.6955110390778823 -0.27323183280705043 46 42 37
1.0579564443212983 3.8136088979478187 1.3613608016707817 71 59 50
-1.051811612657174 3.469311729727523 1.0854369549227059 63 49 38
-0.3354248737341943 3.47937975670899 1.2209476072220742 99 78 58
0.025926239135164376 1.9612913714008642 -0.26844647031291907 133 134 128
-0.19386127796861768 3.311325370887225 1.5725783318793833 110 89 68
0.04076771866416265 3.3763413282309993 1.509386420394546 105 86 69
-0.11110067173438494 2.4343238864626406 -0.1863118525074416 61 60 55
-0.8252185304429713 2.33330414104694 -0.3187688121300198 52 52 43
0.8974544934980762 2.500372132379561 -0.5427436685177021 54 41 24
0.503712009244463 3.6266429316091457 1.1630005241931725 147 134 116
1.3921474830226426 3.6963853479278512 0.4942467486455684 195 192 184
0.5040920330031328 3.519252020912421 1.3626126958030425 158 149 135
-0.10757411711711329 2.6690987313531305 0.047697001267961246 156 134 106
-0.6304415335708102 3.491432983381726 1.1335126704483562 78 61 45
0.1763248740512608 3.4947200242998795 1.3176649454854428 152 140 128
0.7050984569418465 3.89952186260788 0.6495354319352956 112 86 68
-0.5737803814003958 3.318202977296343 1.4626259513479671 80 61 44
-0.08700393991679398 3.594880137409224 1.1099186843167053 118 106 88
0.10093856142686146 2.6472747270761 -1.0055059170387277 165 125 73
0.7726262568749874 2.4075774358251008 -0.27883478320059624 213 205 192
-0.8137814584157571 2.7159566860632394 -0.25220747023133744 67 68 62
-0.5630781126656969 3.4269215802162023 1.2529532131285601 94 73 57
0.8506091177289847 2.4048719445917373 -0.3669019631484665 43 33 27
-0.3804392800442819 3.308429212676744 1.5346071116797328 100 82 65
0.42950038724206197 3.5866619605899652 0.7444270329729371 154 144 134
0.4917340140691005 3.558146580926371 1.2964549030330477 153 140 132
-0.15524792083112735 3.3168682634376725 1.5677907590936584 93 75 51
0.6731075970815377 2.402356493855114 -0.3507150216880084 175 160 136
0.46525416133883407 3.557491725424651 1.268889264922384 151 138 124
0.1763248740512608 3.4947200242998795 1.3176649454854428 152 140 128
-0.46797031094964214 3.3062424003773225 1.5006352123106446 105 79 65
0.2507158406556942 3.5330241603531016 1.3022498676970378 153 138 125
1.0294712712141583 3.8087005206211173 0.9025536409285638 156 149 142
-0.5916165318847953 2.3947761435743433 -0.6677784422940783 53 52 48
-0.23526191034346744 3.3221959168600086 1.530588513434631 105 87 64
-0.29260469645031195 3.363771717621533 1.4511001066069862 94 75 60
1.3253381396289456 3.6030122624611614 0.9737185458854364 87 63 52
-0.4437500286997006 2.2846469151562587 -0.8892372881429456 217 213 209
0.4555797083975781 3.5444403595511815 1.2928130716776602 57 47 43
0.1119898046678181 3.51401187721291 1.2523455502921599 148 136 124
0.8013116285551873 3.88509027865722 0.7024609612078451 151 123 101
0.9012944003393124 3.83330089129624 0.8168293820410781 171 157 147
0.18671209426416327 3.5721888286759276 1.1728216286987725 152 138 125
-0.36013751266143523 3.352912981792285 1.4531564752384156 104 83 66
-0.04295068054458486 3.540309386859959 1.1777842090347224 138 126 109
0.1437413851861128 3.362737297143285 1.5736637888267138 107 88 68
-0.619979053929779 2.830789595372909 0.2202973482252561 25 21 17
1.4620548986619246 3.7435047413869706 0.8214817589320649 135 35 26
0.061836276112289805 3.4805806764874747 1.3062239484130687 127 114 101
-1.0147708749768927 2.3183403526516564 -0.4922328563137782 133 107 79
1.019770744097743 2.2873046943176645 -0.29856843285973445 210 218 210
-0.36013751266143523 3.352912981792285 1.4531564752384156 104 83 66
-0.06737662908529132 3.3657452300979003 1.4980066425988685 100 82 60
-0.3378684949706511 3.498740904036864 1.1920915494403062 60 43 33
-0.5037235632149271 0.011888023187404086 -0.04645738487156046 255 0 0
-0.2820168527271454 -0.003239784664869176 -0.04645929651101058 255 0 0
-0.06031014223936371 -0.01836759251714244 -0.0464612081504607 255 0 0
0.16139656824841797 -0.0334954003694157 -0.04646311978991082 255 0 0
0.38310327873619965 -0.04862320822168896 -0.04646503142936094 255 0 0
0.6048099892239815 -0.06375101607396223 -0.046466943068811065 255 0 0
0.826516699711763 -0.07887882392623549 -0.04646885470826118 255 0 0
1.0482234101995447 -0.09400663177850874 -0.0464707663477113 255 0 0
1.2699301206873264 -0.10913443963078201 -0.046472677987161426 255 0 0
1.4916368311751083 -0.12426224748305528 -0.046474589626611544 255 0 0
-0.5037235632149271 0.011888023187404086 -0.04645738487156046 0 255 0
-0.503725546106868 0.011887044084354084 -0.26867960708277905 0 255 0
-0.503727528998809 0.011886064981304081 -0.49090182929399767 0 255 0
-0.5037295118907499 0.011885085878254079 -0.7131240515052163 0 255 0
-0.5037314947826909 0.011884106775204076 -0.9353462737164349 0 255 0
-0.5037334776746318 0.011883127672154076 -1.1575684959276535 0 255 0
-0.5037354605665727 0.011882148569104073 -1.379790718138872 0 255 0
-0.5037374434585137 0.01188116946605407 -1.6020129403500905 0 255 0
-0.5037394263504547 0.011880190363004068 -1.8242351625613091 0 255 0
-0.5037414092423956 0.011879211259954066 -2.046457384772528 0 255 0
-0.5037235632149271 0.011888023187404086 -0.04645738487156046 0 0 255
-0.4885957553718255 0.23359473368126527 -0.0464584966889217 0 0 255
-0.4734679475287239 0.4553014441751264 -0.04645960850628293 0 0 255
-0.4583401396856223 0.6770081546689877 -0.046460720323644164 0 0 255
-0.44321233184252073 0.8987148651628488 -0.0464618321410054 0 0 255
-0.4280845239994192 1.1204215756567102 -0.04646294395836664 0 0 255
-0.4129567161563176 1.3421282861505712 -0.046464055775727875 0 0 255
-0.39782890831321605 1.5638349966444323 -0.04646516759308911 0 0 255
-0.38270110047011446 1.7855417071382935 -0.04646627941045035 0 0 255
-0.3675732926270129 2.007248417632155 -0.046467391227811586 0 0 255
0.4898731260497979 0.04548817196945658 -0.017917190786639826 255 0 0
0.706615093823686 0.08951925188925022 0.0036906655619734254 255 0 0
0.9233570615975741 0.13355033180904385 0.025298521910586676 255 0 0
1.1400990293714623 0.1775814117288375 0.046906378259199924 255 0 0
1.3568409971453503 0.22161249164863112 0.06851423460781318 255 0 0
1.5735829649192388 0.2656435715684248 0.09012209095642644 255 0 0
1.7903249326931268 0.30967465148821843 0.11172994730503967 255 0 0
2.0070669004670147 0.35370573140801204 0.13333780365365291 255 0 0
2.2238088682409027 0.3977368113278057 0.15494566000226617 255 0 0
2.440550836014791 0.44176789124759935 0.17655351635087943 255 0 0
0.4898731260497979 0.04548817196945658 -0.017917190786639826 0 255 0
0.5099058157449187 0.05537875358937563 -0.2390135132078448 0 255 0
0.5299385054400395 0.06526933520929468 -0.4601098356290498 0 255 0
0.5499711951351604 0.07515991682921373 -0.6812061580502546 0 255 0
0.5700038848302812 0.08505049844913279 -0.9023024804714597 0 255 0
0.590036574525402 0.09494108006905183 -1.1233988028926647 0 255 0
0.6100692642205229 0.10483166168897089 -1.3444951253138695 0 255 0
0.6301019539156436 0.11472224330888993 -1.5655914477350745 0 255 0
0.6501346436107645 0.12461282492880899 -1.7866877701562796 0 255 0
0.6701673333058853 0.13450340654872806 -2.007784092577485 0 255 0
0.4898731260497979 0.04548817196945658 -0.017917190786639826 0 0 255
0.445103417557732 0.26307989158603384 -0.012239796558741365 0 0 255
0.400333709065666 0.48067161120261115 -0.006562402330842904 0 0 255
0.35556400057360005 0.6982633308191883 -0.0008850081029444408 0 0 255
0.31079429208153414 0.9158550504357656 0.0047923861249540185 0 0 255
0.2660245835894682 1.1334467700523432 0.010469780352852485 0 0 255
0.22125487509740227 1.3510384896689203 0.016147174580750944 0 0 255
0.17648516660533636 1.5686302092854973 0.021824568808649403 0 0 255
0.1317154581132704 1.7862219289020749 0.027501963036547863 0 0 255
0.08694574962120444 2.003813648518652 0.03317935726444633 0 0 255
