ply
format ascii 1.0
element vertex 848
property float x
property float y
property float z
property float nx
property float ny
property float nz
property uchar diffuse_red
property uchar diffuse_green
property uchar diffuse_blue
property uchar class
property uchar detection
end_header
1.5778 3.4845 0.6510 -0.940 -0.339 -0.042 193 189 177 0 0
1.5865 3.4860 0.6514 -0.559 -0.540 -0.629 143 136 129 0 0
1.8064 3.8239 0.7195 -0.758 -0.644 0.103 79 71 67 0 0
1.8106 3.8166 0.7182 -0.798 -0.603 0.002 72 65 60 0 0
1.8262 3.7863 0.7126 -0.993 -0.051 -0.105 115 108 100 0 0
1.8271 3.7740 0.7102 -0.993 -0.051 -0.105 115 108 99 0 0
1.8278 3.7616 0.7078 -0.992 -0.048 -0.120 115 108 99 0 0
1.8270 3.7466 0.7049 -0.999 -0.042 -0.002 123 116 108 0 0
1.8154 3.7146 0.6986 -0.999 -0.042 0.030 129 125 116 0 0
1.8073 3.6752 0.6909 -0.838 -0.366 -0.405 144 137 131 0 0
1.8131 3.6713 0.6902 -0.862 -0.433 -0.263 149 143 139 0 0
1.8146 3.6607 0.6882 -0.695 -0.607 -0.385 153 148 143 0 0
1.8188 3.6542 0.6870 -0.552 -0.715 -0.430 157 151 144 0 0
1.8239 3.6494 0.6861 -0.418 -0.772 -0.478 108 103 97 0 0
1.8299 3.6459 0.6856 -0.835 -0.494 -0.241 135 130 124 0 0
1.8340 3.6395 0.6844 -0.835 -0.494 -0.241 168 164 157 0 0
1.8381 3.6331 0.6832 -0.835 -0.494 -0.241 169 166 159 0 0
1.8425 3.6273 0.6822 -0.846 -0.483 -0.227 171 168 161 0 0
1.8466 3.6210 0.6810 -0.851 -0.442 -0.282 165 162 157 0 0
1.8489 3.6121 0.6793 -0.661 -0.613 -0.432 90 87 82 0 0
1.8540 3.6073 0.6785 -0.661 -0.613 -0.432 175 172 168 0 0
-1.4034 2.1189 0.3425 0.667 -0.579 0.468 12 12 12 0 0
-1.3984 2.1168 0.3422 0.983 -0.174 -0.064 12 12 12 0 0
-1.1036 1.8250 0.2906 0.315 -0.819 -0.480 137 114 101 0 0
-1.0999 1.8247 0.2906 0.092 -0.977 -0.190 145 125 107 0 0
-1.0967 1.8258 0.2909 0.020 -0.904 -0.427 152 133 110 0 0
-1.0932 1.8262 0.2910 0.482 -0.858 -0.175 157 135 114 0 0
-1.0900 1.8272 0.2912 0.282 -0.872 -0.399 160 136 115 0 0
-1.0863 1.8268 0.2912 0.269 -0.820 -0.506 159 138 112 0 0
-1.0831 1.8281 0.2915 0.252 -0.854 -0.455 162 141 113 0 0
-1.0800 1.8296 0.2918 0.419 -0.781 -0.462 172 156 132 0 0
-1.0601 1.8586 0.2976 0.975 -0.200 -0.098 172 161 147 0 0
-1.0988 2.8360 0.4834 0.644 -0.627 -0.439 62 54 45 0 0
-1.0885 2.8138 0.4793 -0.487 -0.846 -0.218 57 49 40 0 0
-1.0805 2.8025 0.4772 -0.185 -0.980 -0.069 52 45 38 0 0
-1.0739 2.7974 0.4763 -0.026 -0.997 0.072 42 36 30 0 0
-1.0623 2.7956 0.4762 0.252 -0.964 0.080 14 13 11 0 0
-1.0564 2.7942 0.4760 -0.121 -0.985 0.124 13 12 12 0 0
-1.0505 2.7924 0.4757 0.485 -0.854 0.189 13 11 12 0 0
-0.9185 2.5999 0.4408 0.664 -0.484 0.570 96 84 66 0 0
-0.8843 2.6159 0.4443 -0.734 -0.629 0.256 100 83 63 0 0
-0.8777 2.6069 0.4427 -0.683 -0.548 0.483 85 67 50 0 0
-0.8719 2.6029 0.4420 -0.565 -0.593 0.574 37 24 14 0 0
-0.8653 2.5934 0.4403 -0.518 -0.649 0.557 27 16 12 0 0
-0.8005 2.4908 0.4217 -0.562 -0.649 0.512 39 17 14 0 0
-0.7957 2.4927 0.4221 -0.283 -0.354 0.891 44 16 15 0 0
-0.8074 2.6348 0.4490 0.677 -0.502 0.539 55 17 16 0 0
-0.8011 2.6263 0.4475 0.947 -0.312 -0.080 61 18 15 0 0
-0.7961 2.6293 0.4481 0.944 -0.331 -0.012 63 20 15 0 0
-0.6284 2.8179 0.4863 -0.196 -0.839 0.507 136 52 38 0 0
-0.6224 2.8119 0.4853 -0.048 -0.808 0.587 133 47 30 0 0
-0.6167 2.8124 0.4855 0.023 -0.772 0.635 132 42 26 0 0
-0.6108 2.8086 0.4848 0.257 -0.744 0.617 132 40 25 0 0
-0.6051 2.8103 0.4852 0.469 -0.633 0.616 132 36 21 0 0
-0.4836 2.8820 0.5005 0.957 -0.225 -0.184 123 33 21 0 0
-0.4778 2.8660 0.4975 0.859 -0.400 -0.320 116 30 20 0 0
-0.4712 2.9416 0.5121 0.938 -0.312 -0.150 111 28 20 0 0
-0.4648 2.9700 0.5176 0.867 -0.477 -0.144 104 26 19 0 0
-0.4585 2.9807 0.5197 0.867 -0.477 -0.144 95 23 17 0 0
-0.4522 2.9916 0.5218 0.867 -0.477 -0.144 68 21 18 0 0
-0.1705 2.2403 0.3825 -0.131 -0.204 0.970 29 24 20 0 0
0.5029 3.5435 0.6400 0.302 -0.792 -0.530 34 29 26 0 0
0.5114 3.5466 0.6408 0.347 -0.778 -0.524 65 58 54 0 0
0.5186 3.5453 0.6406 -0.639 -0.558 -0.530 176 168 158 0 0
0.5695 3.6945 0.6697 0.504 -0.731 -0.460 181 173 162 0 0
0.6765 3.7063 0.6735 -0.376 -0.216 -0.901 147 121 100 0 0
0.6800 3.6676 0.6661 -0.011 -0.795 0.607 147 120 98 0 0
0.6879 3.6676 0.6662 -0.011 -0.795 0.607 147 119 98 0 0
0.7074 3.6549 0.6641 -0.786 -0.553 0.277 151 120 99 0 0
0.7493 3.6853 0.6704 0.760 -0.345 -0.551 151 122 99 0 0
0.7548 3.6780 0.6691 0.841 -0.309 -0.443 151 122 100 0 0
0.7843 3.7406 0.6815 0.841 -0.309 -0.443 160 139 118 0 0
0.7982 3.7573 0.6848 0.666 -0.334 -0.667 187 172 159 0 0
0.9712 3.8042 0.6961 0.062 -0.972 0.225 171 162 153 0 0
0.9942 3.7995 0.6955 0.268 -0.942 -0.203 164 156 149 0 0
1.0013 3.7966 0.6951 -0.020 -0.933 -0.360 166 159 149 0 0
1.0076 3.7916 0.6942 -0.209 -0.932 -0.298 164 158 147 0 0
1.0152 3.7900 0.6940 -0.209 -0.932 -0.298 160 152 143 0 0
1.0604 3.8195 0.7003 0.326 -0.860 0.393 147 139 130 0 0
1.0691 3.8205 0.7006 0.284 -0.871 0.401 150 141 133 0 0
1.0753 3.8154 0.6997 0.070 -0.998 0.012 162 156 148 0 0
1.0831 3.8141 0.6995 0.100 -0.975 -0.199 157 151 145 0 0
1.0916 3.8144 0.6997 0.261 -0.928 -0.267 150 143 136 0 0
1.1009 3.8169 0.7003 0.261 -0.928 -0.267 128 118 112 0 0
1.1083 3.8147 0.7000 -0.531 -0.847 0.012 96 85 79 0 0
1.1135 3.8071 0.6986 -0.802 -0.588 0.106 85 74 68 0 0
1.1161 3.7938 0.6961 -0.684 -0.718 -0.133 92 82 73 0 0
1.1161 3.7744 0.6924 -0.662 -0.728 0.177 96 84 76 0 0
1.1608 3.6024 0.6603 0.142 -0.902 -0.409 113 107 110 0 0
1.1837 3.6007 0.6602 -0.002 -0.935 -0.354 165 158 150 0 0
1.2054 3.6131 0.6629 -0.991 -0.122 -0.049 151 141 135 0 0
1.2072 3.6000 0.6604 -0.991 -0.122 -0.049 144 131 118 0 0
1.2097 3.5886 0.6583 -0.990 -0.134 -0.039 144 96 78 0 0
1.2121 3.5771 0.6562 -0.991 -0.135 0.011 134 35 31 0 0
1.2155 3.5679 0.6544 -0.962 -0.267 0.056 125 32 26 0 0
1.2185 3.5578 0.6526 -0.951 -0.308 0.029 120 32 25 0 0
1.2230 3.5511 0.6513 -0.864 -0.437 0.249 123 42 40 0 0
1.2272 3.5436 0.6500 -0.687 -0.715 0.128 134 77 72 0 0
1.2330 3.5395 0.6493 -0.422 -0.885 -0.197 131 94 85 0 0
1.2749 3.5767 0.6569 0.128 -0.201 -0.971 74 67 57 0 0
1.2652 3.4349 0.6298 -0.880 -0.143 -0.453 110 105 99 0 0
1.2392 3.3556 0.6143 -0.700 -0.114 0.705 107 99 94 0 0
1.3491 3.4353 0.6310 -0.827 -0.172 -0.536 119 108 94 0 0
1.4262 3.4917 0.6428 0.496 -0.830 -0.255 68 62 55 0 0
1.4325 3.4752 0.6397 -0.787 -0.394 -0.475 109 113 108 0 0
1.5810 3.4899 0.6446 -0.612 -0.672 -0.418 185 178 167 0 0
1.8065 3.8240 0.7113 -0.730 -0.683 -0.019 76 69 64 0 0
1.8111 3.8175 0.7101 -0.610 -0.783 -0.119 69 63 58 0 0
1.8277 3.7888 0.7049 -0.992 -0.081 -0.097 117 110 103 0 0
1.8094 3.6785 0.6836 -0.838 -0.366 -0.405 146 139 134 0 0
1.8111 3.6681 0.6817 -0.682 -0.601 -0.416 149 144 139 0 0
1.8150 3.6613 0.6804 -0.568 -0.706 -0.424 154 148 141 0 0
1.8208 3.6574 0.6798 -0.504 -0.729 -0.463 157 150 142 0 0
1.8255 3.6519 0.6788 -0.246 -0.803 -0.543 90 84 79 0 0
1.8310 3.6476 0.6780 -0.835 -0.494 -0.241 160 154 148 0 0
1.8348 3.6407 0.6768 -0.868 -0.436 -0.236 168 164 158 0 0
1.8436 3.6290 0.6747 -0.846 -0.483 -0.227 172 169 162 0 0
1.8475 3.6224 0.6735 -0.853 -0.467 -0.231 146 143 138 0 0
1.8504 3.6144 0.6720 -0.695 -0.619 -0.365 120 117 112 0 0
1.8554 3.6095 0.6711 -0.623 -0.651 -0.434 177 174 170 0 0
1.3062 2.4406 0.4409 -0.395 -0.784 -0.479 142 140 134 0 0
-1.3985 2.1170 0.3380 0.983 -0.171 -0.066 12 12 12 0 0
-1.3972 2.1237 0.3393 0.983 -0.171 -0.066 12 12 12 0 0
-1.1039 1.8262 0.2872 0.217 -0.863 -0.455 136 110 89 0 0
-1.1004 1.8262 0.2872 0.122 -0.917 -0.381 156 133 118 0 0
-1.0964 1.8251 0.2871 -0.150 -0.936 -0.317 155 135 114 0 0
-1.0934 1.8268 0.2875 0.482 -0.858 -0.175 160 137 118 0 0
-1.0899 1.8269 0.2875 0.419 -0.781 -0.462 159 136 113 0 0
-1.0837 1.8298 0.2881 0.419 -0.781 -0.462 159 135 110 0 0
-1.0806 1.8313 0.2885 0.419 -0.781 -0.462 167 147 124 0 0
-1.0780 1.8347 0.2891 0.281 -0.905 -0.319 172 151 134 0 0
-1.0752 1.8371 0.2896 0.430 -0.850 -0.304 178 161 146 0 0
-1.0624 1.8540 0.2930 0.917 -0.387 0.094 174 160 147 0 0
-1.0605 1.8599 0.2941 0.919 -0.368 0.143 163 149 137 0 0
-1.0992 2.8378 0.4779 0.544 -0.749 -0.378 63 55 45 0 0
-1.0883 2.8129 0.4734 -0.534 -0.845 -0.019 58 49 40 0 0
-1.0816 2.8077 0.4725 -0.610 -0.793 -0.009 51 44 37 0 0
-1.0738 2.7969 0.4706 -0.101 -0.994 0.051 46 40 34 0 0
-1.0672 2.7922 0.4698 0.475 -0.866 0.157 29 25 21 0 0
-1.0619 2.7937 0.4701 0.376 -0.918 0.128 14 12 11 0 0
-1.0564 2.7940 0.4703 0.241 -0.966 0.096 13 11 12 0 0
-1.0506 2.7929 0.4701 0.316 -0.946 -0.076 13 11 12 0 0
-0.9628 2.6742 0.4489 -0.690 -0.516 0.508 68 58 41 0 0
-0.9553 2.6620 0.4467 -0.690 -0.516 0.508 74 63 46 0 0
-0.9482 2.6514 0.4448 -0.744 -0.520 0.419 78 68 50 0 0
-0.9087 2.6371 0.4427 0.378 -0.926 0.017 105 93 74 0 0
-0.9036 2.6385 0.4430 0.218 -0.933 -0.287 111 97 73 0 0
-0.8834 2.6098 0.4379 -0.474 -0.631 0.614 111 88 64 0 0
-0.8770 2.6018 0.4365 -0.681 -0.560 0.471 108 83 58 0 0
-0.8708 2.5954 0.4353 -0.565 -0.593 0.574 106 79 54 0 0
-0.8638 2.5828 0.4330 -0.649 -0.646 0.402 100 76 51 0 0
-0.8461 2.6057 0.4376 -0.362 -0.342 0.867 133 119 100 0 0
-0.8064 2.6263 0.4420 0.537 -0.484 0.691 70 43 36 0 0
-0.8009 2.6246 0.4418 0.885 -0.375 0.275 59 22 19 0 0
-0.6283 2.8147 0.4799 0.107 -0.864 0.492 135 50 34 0 0
-0.6226 2.8153 0.4801 0.191 -0.902 0.388 134 47 30 0 0
-0.6169 2.8168 0.4805 0.661 -0.650 0.374 133 42 27 0 0
-0.6108 2.8091 0.4791 0.760 -0.617 0.205 133 40 25 0 0
-0.6051 2.8108 0.4795 0.846 -0.509 0.157 133 37 21 0 0
-0.5997 2.8200 0.4813 0.870 -0.445 0.214 133 37 21 0 0
-0.5132 2.8655 0.4911 0.397 -0.844 -0.360 137 40 23 0 0
-0.5073 2.8703 0.4921 0.299 -0.869 -0.394 136 38 22 0 0
-0.5014 2.8629 0.4907 0.189 -0.732 -0.655 134 36 21 0 0
-0.4895 2.8787 0.4939 0.927 -0.315 -0.201 128 34 22 0 0
-0.4836 2.8862 0.4954 0.953 -0.220 -0.208 124 33 23 0 0
-0.4711 2.9444 0.5065 0.938 -0.312 -0.150 110 27 20 0 0
-0.4585 2.9837 0.5141 0.847 -0.500 -0.178 96 23 17 0 0
0.5042 3.5483 0.6335 0.347 -0.778 -0.524 38 32 29 0 0
0.5131 3.5527 0.6345 0.380 -0.740 -0.554 94 85 81 0 0
0.5199 3.5500 0.6340 -0.639 -0.558 -0.530 180 172 160 0 0
0.5707 3.6986 0.6627 -0.073 -0.962 -0.263 181 173 161 0 0
0.7494 3.6855 0.6627 0.853 -0.371 -0.367 151 120 96 0 0
0.9520 3.7973 0.6865 0.031 -0.989 -0.144 163 153 144 0 0
0.9613 3.7999 0.6871 0.035 -0.992 -0.125 163 153 144 0 0
0.9788 3.8026 0.6879 -0.073 -0.992 0.101 162 153 143 0 0
1.0028 3.8005 0.6878 -0.389 -0.912 0.129 165 158 148 0 0
1.0099 3.7974 0.6873 -0.389 -0.912 0.129 165 158 148 0 0
1.0171 3.7947 0.6869 -0.351 -0.935 0.049 160 153 143 0 0
1.0488 3.8117 0.6905 0.355 -0.860 0.367 154 147 139 0 0
1.0669 3.8153 0.6914 0.417 -0.897 0.147 161 154 146 0 0
1.0753 3.8153 0.6916 0.070 -0.998 0.012 156 149 142 0 0
1.0838 3.8157 0.6917 0.100 -0.975 -0.199 149 141 135 0 0
1.0925 3.8167 0.6920 0.304 -0.923 -0.236 134 124 117 0 0
1.1024 3.8204 0.6929 -0.099 -0.995 -0.034 101 91 82 0 0
1.1055 3.8080 0.6906 -0.710 -0.700 0.070 91 81 73 0 0
1.1327 3.5929 0.6504 0.245 -0.962 -0.118 49 78 134 0 0
1.1858 3.6051 0.6534 -0.179 -0.944 -0.277 164 156 148 0 0
1.2056 3.6135 0.6553 -0.989 -0.141 -0.033 146 136 127 0 0
1.2075 3.6007 0.6529 -0.990 -0.140 -0.011 144 128 115 0 0
1.2093 3.5879 0.6505 -0.990 -0.140 -0.011 136 77 67 0 0
1.2114 3.5758 0.6483 -0.989 -0.145 0.002 132 37 36 0 0
1.2151 3.5671 0.6467 -0.957 -0.281 0.064 121 33 26 0 0
1.2180 3.5568 0.6448 -0.954 -0.291 0.076 118 35 32 0 0
1.2223 3.5495 0.6434 -0.826 -0.490 0.278 136 76 72 0 0
1.2267 3.5426 0.6422 -0.687 -0.715 0.128 146 105 95 0 0
1.2319 3.5372 0.6413 -0.735 -0.644 0.211 112 85 73 0 0
1.2349 3.5276 0.6395 -0.749 -0.563 0.350 80 70 59 0 0
1.2708 3.5842 0.6506 0.597 -0.541 -0.593 72 65 54 0 0
1.4192 3.4931 0.6355 0.770 -0.626 -0.126 122 113 102 0 0
1.5524 3.4944 0.6375 -0.953 -0.214 -0.213 172 168 160 0 0
1.5865 3.4860 0.6364 0.085 -0.963 -0.255 99 91 87 0 0
1.8250 3.8121 0.7011 -0.926 -0.178 -0.334 93 85 82 0 0
1.8273 3.8019 0.6992 -0.983 -0.074 -0.168 115 107 104 0 0
1.8285 3.7900 0.6970 -0.990 -0.079 -0.119 117 109 103 0 0
1.8288 3.7768 0.6945 -0.984 -0.080 -0.160 117 110 103 0 0
1.8182 3.6925 0.6784 -0.993 -0.089 -0.071 148 140 136 0 0
1.8119 3.6694 0.6740 -0.637 -0.653 -0.410 150 145 141 0 0
1.8169 3.6642 0.6731 -0.568 -0.706 -0.424 156 150 145 0 0
1.8218 3.6589 0.6722 -0.399 -0.798 -0.451 143 137 131 0 0
1.8280 3.6558 0.6717 -0.414 -0.783 -0.464 100 96 89 0 0
1.8321 3.6494 0.6705 -0.835 -0.494 -0.241 165 161 155 0 0
1.8359 3.6425 0.6693 -0.850 -0.455 -0.267 168 165 158 0 0
1.8442 3.6299 0.6670 -0.824 -0.527 -0.208 172 169 162 0 0
1.8474 3.6223 0.6656 -0.663 -0.669 -0.337 116 113 108 0 0
1.8520 3.6168 0.6646 -0.642 -0.676 -0.361 153 150 145 0 0
1.8572 3.6123 0.6639 -0.642 -0.676 -0.361 178 175 170 0 0
1.3094 2.4448 0.4364 -0.025 -0.790 -0.613 141 137 131 0 0
1.3133 2.4426 0.4360 -0.033 -0.747 -0.665 115 107 100 0 0
-1.3987 2.1175 0.3339 0.982 -0.179 -0.065 12 12 12 0 0
-1.3975 2.1243 0.3352 0.983 -0.172 -0.060 13 13 13 0 0
-1.1045 1.8278 0.2838 0.217 -0.863 -0.455 146 120 105 0 0
-1.1008 1.8275 0.2838 0.099 -0.916 -0.390 157 134 119 0 0
-1.0970 1.8269 0.2837 -0.154 -0.808 -0.569 161 140 121 0 0
-1.0939 1.8282 0.2840 0.232 -0.768 -0.596 159 138 118 0 0
-1.0904 1.8286 0.2841 0.419 -0.781 -0.462 152 129 110 0 0
-1.0873 1.8300 0.2845 0.419 -0.781 -0.462 147 122 103 0 0
-1.0842 1.8315 0.2848 0.419 -0.781 -0.462 153 131 107 0 0
-1.0811 1.8330 0.2851 0.419 -0.781 -0.462 164 141 128 0 0
-1.0784 1.8358 0.2857 0.281 -0.905 -0.319 173 154 139 0 0
-1.0759 1.8393 0.2863 0.383 -0.853 -0.354 178 162 146 0 0
-1.0730 1.8416 0.2868 0.537 -0.746 -0.394 177 161 146 0 0
-1.0568 1.8597 0.2904 0.862 -0.417 -0.288 150 134 124 0 0
-1.1057 2.8416 0.4728 -0.576 -0.813 0.087 60 52 42 0 0
-1.0990 2.8367 0.4720 -0.630 -0.754 0.187 63 55 47 0 0
-1.0914 2.8277 0.4704 -0.698 -0.706 0.122 54 47 38 0 0
-1.0807 2.8036 0.4660 -0.316 -0.863 0.395 49 42 35 0 0
-1.0748 2.8021 0.4658 -0.148 -0.885 0.440 48 43 37 0 0
-1.0679 2.7956 0.4647 0.270 -0.888 0.373 31 26 23 0 0
-0.9523 2.6758 0.4439 -0.749 -0.530 0.397 70 61 43 0 0
-0.9449 2.6636 0.4418 -0.761 -0.551 0.342 70 61 42 0 0
-0.9378 2.6526 0.4398 -0.775 -0.567 0.280 77 66 48 0 0
-0.9316 2.6476 0.4389 -0.811 -0.581 0.069 86 73 54 0 0
-0.9233 2.6294 0.4357 -0.741 -0.615 0.268 92 76 57 0 0
-0.9166 2.6203 0.4341 -0.742 -0.598 0.304 93 79 60 0 0
-0.9100 2.6119 0.4326 -0.849 -0.523 0.073 98 85 65 0 0
-0.8760 2.5951 0.4299 -0.681 -0.560 0.471 112 73 55 0 0
-0.8698 2.5883 0.4287 -0.637 -0.639 0.430 100 66 50 0 0
-0.8639 2.5831 0.4278 -0.656 -0.676 0.336 83 59 40 0 0
-0.7555 2.6498 0.4417 -0.505 -0.556 -0.660 81 23 18 0 0
-0.7501 2.6499 0.4418 -0.368 -0.699 -0.613 84 24 18 0 0
-0.7441 2.6428 0.4406 -0.121 -0.773 -0.623 87 24 17 0 0
-0.7136 2.6638 0.4449 0.620 -0.479 -0.622 101 23 17 0 0
-0.6721 2.7801 0.4671 0.850 -0.515 -0.113 107 27 18 0 0
-0.6662 2.7768 0.4666 0.807 -0.589 -0.036 109 29 20 0 0
-0.6605 2.7753 0.4664 0.829 -0.552 -0.085 117 34 24 0 0
-0.6551 2.7811 0.4675 0.555 -0.816 -0.162 121 38 29 0 0
-0.6498 2.7870 0.4687 0.135 -0.991 -0.020 127 47 35 0 0
-0.5993 2.8099 0.4736 0.909 -0.395 -0.131 134 36 20 0 0
-0.5940 2.8215 0.4759 0.897 -0.389 -0.211 133 36 20 0 0
-0.5132 2.8671 0.4855 0.374 -0.853 -0.364 138 41 24 0 0
-0.5073 2.8701 0.4861 0.359 -0.801 -0.479 137 40 22 0 0
-0.4955 2.8880 0.4896 0.885 -0.404 -0.231 131 35 20 0 0
-0.4895 2.8802 0.4882 0.910 -0.308 -0.279 129 35 21 0 0
-0.4711 2.9462 0.5008 0.936 -0.310 -0.165 109 26 18 0 0
-0.4584 2.9876 0.5086 0.801 -0.548 -0.241 96 24 18 0 0
0.5068 3.5573 0.6277 0.606 -0.629 -0.487 47 36 34 0 0
0.5146 3.5581 0.6280 0.232 -0.806 -0.544 133 122 115 0 0
0.5637 3.7019 0.6555 -0.560 -0.816 -0.143 180 173 158 0 0
0.5703 3.6974 0.6547 -0.560 -0.816 -0.143 181 173 160 0 0
0.2389 2.3627 0.4015 -0.857 -0.459 -0.235 170 154 140 0 0
0.2419 2.3560 0.4003 -0.891 -0.387 -0.238 158 141 123 0 0
0.7659 3.7341 0.6642 0.824 -0.481 -0.299 151 120 97 0 0
0.7828 3.7600 0.6692 0.824 -0.481 -0.299 151 124 106 0 0
0.9436 3.7969 0.6782 0.083 -0.973 -0.213 164 153 143 0 0
0.9518 3.7969 0.6784 0.419 -0.880 -0.223 156 146 137 0 0
0.9609 3.7990 0.6789 -0.019 -0.999 0.037 155 145 136 0 0
0.9693 3.7993 0.6790 -0.306 -0.932 0.192 153 143 134 0 0
1.0100 3.7977 0.6793 0.034 -0.995 -0.092 164 157 147 0 0
1.0175 3.7956 0.6790 -0.223 -0.960 -0.172 162 155 145 0 0
1.0346 3.8176 0.6833 0.086 -0.956 0.282 163 156 146 0 0
1.0470 3.8071 0.6815 0.355 -0.860 0.367 149 142 134 0 0
1.0952 3.8230 0.6851 0.282 -0.927 -0.249 97 84 76 0 0
1.1070 3.8115 0.6832 -0.688 -0.717 0.115 86 76 67 0 0
1.1063 3.7516 0.6720 -0.967 -0.237 0.088 88 77 71 0 0
1.1343 3.5963 0.6434 0.387 -0.886 -0.257 27 44 92 0 0
1.1867 3.6071 0.6461 -0.179 -0.944 -0.277 162 153 143 0 0
1.2058 3.6308 0.6508 -0.993 -0.111 0.034 153 143 132 0 0
1.2071 3.6166 0.6482 -0.990 -0.139 0.022 148 137 126 0 0
1.2085 3.6028 0.6456 -0.993 -0.110 0.037 145 126 116 0 0
1.2099 3.5892 0.6431 -0.993 -0.110 0.037 122 63 59 0 0
1.2117 3.5764 0.6407 -0.988 -0.130 0.086 115 35 31 0 0
1.2145 3.5659 0.6388 -0.968 -0.231 0.096 108 31 24 0 0
1.2178 3.5565 0.6371 -0.953 -0.284 0.109 123 60 53 0 0
1.2211 3.5470 0.6354 -0.826 -0.490 0.278 153 116 106 0 0
1.2263 3.5417 0.6345 -0.687 -0.715 0.128 130 99 89 0 0
1.2309 3.5353 0.6333 -0.663 -0.626 0.411 100 81 66 0 0
1.4229 3.4999 0.6293 0.776 -0.630 -0.029 129 119 107 0 0
1.5584 3.5723 0.6446 -0.248 -0.400 0.882 94 66 46 0 0
1.5590 3.5596 0.6422 0.044 -0.580 0.814 108 88 71 0 0
1.5671 3.5599 0.6424 -0.008 -0.560 0.829 148 138 132 0 0
1.5498 3.4900 0.6291 -0.827 -0.464 0.319 186 183 174 0 0
1.5822 3.5050 0.6324 -0.503 -0.814 -0.291 200 195 183 0 0
1.5873 3.5005 0.6316 -0.298 -0.866 -0.401 185 178 167 0 0
1.5877 3.4880 0.6293 0.085 -0.963 -0.255 95 88 83 0 0
1.5898 3.4785 0.6275 -0.691 -0.480 -0.541 69 64 60 0 0
1.8285 3.8039 0.6914 -0.983 -0.074 -0.168 117 107 105 0 0
1.8296 3.7918 0.6891 -0.986 -0.072 -0.150 115 106 102 0 0
1.8306 3.7797 0.6869 -0.970 -0.085 -0.227 117 109 103 0 0
1.8061 3.6865 0.6692 -0.798 -0.399 -0.452 144 137 130 0 0
1.8110 3.6810 0.6682 -0.824 -0.454 -0.340 148 143 137 0 0
1.8137 3.6723 0.6667 -0.637 -0.653 -0.410 151 147 141 0 0
1.8186 3.6670 0.6657 -0.580 -0.721 -0.378 156 151 145 0 0
1.8237 3.6621 0.6649 -0.399 -0.798 -0.451 112 107 101 0 0
1.8304 3.6595 0.6645 -0.617 -0.705 -0.350 133 129 122 0 0
1.8333 3.6512 0.6630 -0.835 -0.494 -0.241 166 163 156 0 0
1.8372 3.6445 0.6618 -0.850 -0.455 -0.267 170 166 160 0 0
1.8456 3.6320 0.6596 -0.823 -0.500 -0.269 170 167 160 0 0
1.8484 3.6238 0.6581 -0.619 -0.656 -0.432 98 95 89 0 0
1.8537 3.6194 0.6573 -0.619 -0.656 -0.432 171 168 163 0 0
1.8589 3.6149 0.6566 -0.619 -0.656 -0.432 179 176 171 0 0
-1.3978 2.1153 0.3293 0.987 -0.155 0.034 12 12 12 0 0
-1.3979 2.1253 0.3311 0.982 -0.172 -0.072 13 13 13 0 0
-1.1050 1.8294 0.2804 0.217 -0.863 -0.455 149 127 112 0 0
-1.1013 1.8289 0.2804 0.099 -0.916 -0.390 158 137 119 0 0
-1.0978 1.8293 0.2805 -0.154 -0.808 -0.569 153 132 111 0 0
-1.0949 1.8313 0.2809 0.086 -0.927 -0.365 152 131 110 0 0
-1.0910 1.8304 0.2808 0.423 -0.804 -0.418 127 103 83 0 0
-1.0819 1.8354 0.2818 0.480 -0.795 -0.370 160 139 124 0 0
-1.0788 1.8369 0.2822 0.281 -0.905 -0.319 172 154 139 0 0
-1.0763 1.8406 0.2829 0.383 -0.853 -0.354 179 163 147 0 0
-1.0574 1.8615 0.2870 0.898 -0.416 -0.142 143 127 116 0 0
-1.0550 1.8657 0.2878 0.891 -0.391 -0.231 141 126 116 0 0
-1.1056 2.8414 0.4670 -0.627 -0.764 0.153 62 55 45 0 0
-1.0985 2.8348 0.4659 -0.597 -0.757 0.265 63 57 47 0 0
-1.0908 2.8247 0.4641 -0.600 -0.743 0.296 54 47 39 0 0
-1.0837 2.8176 0.4629 -0.700 -0.674 0.236 47 41 34 0 0
-1.0746 2.8010 0.4599 -0.212 -0.906 0.365 48 43 37 0 0
-1.0679 2.7955 0.4590 0.217 -0.925 0.311 37 32 28 0 0
-1.0615 2.7915 0.4584 0.736 -0.640 0.221 14 12 11 0 0
-0.9508 2.6670 0.4369 -0.730 -0.513 0.452 66 57 41 0 0
-0.9456 2.6675 0.4370 -0.804 -0.570 0.169 70 59 42 0 0
-0.9384 2.6566 0.4351 -0.811 -0.581 0.069 75 63 46 0 0
-0.9315 2.6467 0.4334 -0.811 -0.581 0.069 75 62 46 0 0
-0.9245 2.6368 0.4317 -0.811 -0.581 0.069 80 68 49 0 0
-0.9177 2.6270 0.4299 -0.811 -0.581 0.069 84 71 51 0 0
-0.9116 2.6222 0.4291 -0.858 -0.513 -0.029 90 77 58 0 0
-0.9054 2.6160 0.4281 -0.869 -0.468 -0.163 94 79 58 0 0
-0.8750 2.5884 0.4234 -0.683 -0.558 0.471 149 94 82 0 0
-0.8695 2.5859 0.4230 -0.585 -0.680 0.442 114 70 57 0 0
-0.8631 2.5779 0.4216 -0.676 -0.641 0.363 97 60 42 0 0
-0.7562 2.6572 0.4376 -0.390 -0.507 -0.769 69 35 30 0 0
-0.7506 2.6547 0.4373 -0.191 -0.658 -0.728 83 37 32 0 0
-0.7449 2.6514 0.4367 0.208 -0.585 -0.784 86 32 23 0 0
-0.7406 2.6630 0.4389 0.762 -0.567 -0.312 87 30 22 0 0
-0.7344 2.6547 0.4375 0.564 -0.359 -0.744 87 25 16 0 0
-0.7291 2.6551 0.4376 0.254 -0.337 -0.907 95 26 19 0 0
-0.7240 2.6583 0.4383 0.102 -0.351 -0.931 97 23 15 0 0
-0.7137 2.6647 0.4396 0.348 -0.464 -0.815 102 24 18 0 0
-0.7095 2.6804 0.4425 0.907 -0.333 -0.257 103 24 17 0 0
-0.6499 2.7894 0.4634 0.090 -0.983 -0.159 128 47 35 0 0
-0.6443 2.7905 0.4637 0.377 -0.916 -0.135 134 55 42 0 0
-0.5994 2.8108 0.4680 0.738 -0.406 -0.539 135 38 22 0 0
-0.5073 2.8749 0.4811 0.244 -0.773 -0.585 137 40 23 0 0
-0.4895 2.8904 0.4842 0.911 -0.273 -0.308 128 35 21 0 0
-0.4711 2.9501 0.4954 0.932 -0.321 -0.170 109 26 18 0 0
-0.4584 2.9900 0.5029 0.816 -0.530 -0.230 96 23 16 0 0
0.1762 3.5717 0.6186 0.418 -0.435 0.797 29 24 20 0 0
0.1868 3.5875 0.6216 0.418 -0.435 0.797 28 23 19 0 0
0.4106 3.3976 0.5895 -0.400 -0.153 -0.904 37 32 28 0 0
0.5089 3.5646 0.6216 0.240 -0.837 -0.491 58 43 36 0 0
0.5158 3.5623 0.6213 0.302 -0.840 -0.450 162 149 138 0 0
0.2394 2.3642 0.3968 -0.943 -0.224 -0.245 177 162 150 0 0
0.7771 3.7670 0.6625 0.636 -0.747 0.194 151 120 97 0 0
0.7883 3.7759 0.6643 0.451 -0.880 -0.151 157 132 110 0 0
0.7986 3.7823 0.6656 0.600 -0.750 -0.279 188 171 155 0 0
0.8094 3.7899 0.6671 0.571 -0.776 -0.268 189 175 162 0 0
0.5500 3.0033 0.5187 -0.802 -0.127 0.584 189 173 161 0 0
0.5497 2.9838 0.5151 -0.830 -0.126 0.543 188 172 159 0 0
0.8531 3.7744 0.6648 0.595 -0.511 -0.620 188 174 162 0 0
0.9530 3.7999 0.6709 0.200 -0.759 -0.619 153 143 135 0 0
0.9714 3.8047 0.6720 -0.203 -0.712 0.672 166 155 144 0 0
0.9810 3.8082 0.6728 0.086 -0.861 0.501 149 137 131 0 0
0.9860 3.7997 0.6713 -0.074 -0.986 -0.148 158 150 144 0 0
1.0103 3.7984 0.6714 0.034 -0.995 -0.092 157 150 140 0 0
1.0331 3.8139 0.6745 0.075 -0.936 0.345 160 153 143 0 0
1.0367 3.8023 0.6724 0.213 -0.964 0.161 157 150 141 0 0
1.1066 3.8105 0.6749 -0.688 -0.717 0.115 88 77 70 0 0
1.1059 3.7893 0.6710 -0.909 -0.343 0.237 83 72 67 0 0
1.1064 3.7518 0.6640 -0.939 -0.339 0.060 77 66 60 0 0
1.1140 3.7128 0.6569 -0.992 -0.004 0.127 83 71 66 0 0
1.1137 3.6934 0.6534 -0.992 -0.004 0.129 131 118 109 0 0
1.1094 3.5938 0.6349 -0.935 -0.102 0.341 108 108 120 0 0
1.1354 3.5989 0.6362 0.387 -0.886 -0.257 29 39 81 0 0
1.2063 3.6318 0.6432 -0.993 -0.108 0.038 148 138 126 0 0
1.2070 3.6164 0.6404 -0.990 -0.139 0.022 146 134 124 0 0
1.2083 3.6023 0.6378 -0.993 -0.108 0.045 139 117 104 0 0
1.2098 3.5890 0.6354 -0.994 -0.089 0.065 103 45 39 0 0
1.2112 3.5753 0.6329 -0.988 -0.130 0.086 101 33 28 0 0
1.2139 3.5645 0.6309 -0.974 -0.204 0.098 97 35 28 0 0
1.2171 3.5550 0.6292 -0.956 -0.271 0.114 139 102 89 0 0
1.2204 3.5457 0.6275 -0.750 -0.619 0.232 143 118 108 0 0
1.2258 3.5407 0.6267 -0.687 -0.715 0.128 115 90 82 0 0
1.2290 3.5313 0.6250 -0.752 -0.574 0.324 92 78 65 0 0
1.2307 3.5190 0.6228 -0.746 -0.468 0.475 79 71 58 0 0
1.4019 3.5185 0.6249 -0.958 -0.190 -0.216 96 83 70 0 0
1.4236 3.5012 0.6220 0.785 -0.617 -0.054 134 126 113 0 0
1.5381 3.5788 0.6378 -0.305 -0.263 0.915 83 56 41 0 0
1.5372 3.5631 0.6350 0.089 -0.608 0.789 89 61 43 0 0
1.5356 3.5466 0.6319 0.510 -0.699 0.501 90 61 42 0 0
1.5487 3.5555 0.6337 0.644 -0.701 0.307 91 63 44 0 0
1.5554 3.5534 0.6334 0.639 -0.740 0.210 110 94 79 0 0
1.5393 3.5122 0.6256 -0.791 -0.438 0.427 187 183 178 0 0
1.5428 3.5046 0.6242 -0.791 -0.438 0.427 203 199 196 0 0
1.5451 3.4953 0.6226 -0.754 -0.545 0.368 196 192 188 0 0
1.5482 3.4873 0.6211 -0.827 -0.464 0.319 196 193 186 0 0
1.5549 3.4854 0.6209 -0.684 -0.684 0.252 201 197 187 0 0
1.5824 3.5053 0.6249 -0.303 -0.899 -0.316 201 196 185 0 0
1.5889 3.5032 0.6246 -0.298 -0.866 -0.401 198 192 183 0 0
1.5889 3.4901 0.6222 0.215 -0.957 -0.193 159 154 149 0 0
1.8287 3.8042 0.6832 -0.988 -0.083 -0.129 118 109 104 0 0
1.8298 3.7922 0.6810 -0.987 -0.083 -0.139 117 108 103 0 0
1.8084 3.6901 0.6619 -0.803 -0.334 -0.493 144 139 131 0 0
1.8123 3.6831 0.6607 -0.791 -0.459 -0.405 148 143 137 0 0
1.8155 3.6752 0.6593 -0.637 -0.653 -0.410 153 148 142 0 0
1.8206 3.6701 0.6584 -0.568 -0.706 -0.424 153 148 142 0 0
1.8259 3.6655 0.6576 -0.127 -0.840 -0.527 86 81 75 0 0
1.8311 3.6606 0.6568 -0.741 -0.604 -0.292 157 153 146 0 0
1.8438 3.6420 0.6535 -0.849 -0.437 -0.297 172 169 162 0 0
1.8476 3.6353 0.6523 -0.849 -0.437 -0.297 157 154 147 0 0
1.8498 3.6260 0.6507 -0.625 -0.629 -0.463 105 102 95 0 0
1.8556 3.6223 0.6501 -0.619 -0.656 -0.432 176 173 169 0 0
1.8609 3.6179 0.6493 -0.619 -0.656 -0.432 179 176 171 0 0
1.3247 2.4429 0.4256 -0.221 -0.722 -0.655 73 62 53 0 0
-1.3981 2.1258 0.3270 0.982 -0.174 -0.076 13 13 13 0 0
-1.1121 1.8187 0.2747 0.979 -0.173 -0.104 67 53 40 0 0
-1.1055 1.8309 0.2770 0.290 -0.827 -0.482 147 126 109 0 0
-1.1022 1.8318 0.2772 0.270 -0.829 -0.490 156 135 115 0 0
-1.0986 1.8318 0.2773 -0.154 -0.808 -0.569 132 110 87 0 0
-1.0953 1.8326 0.2775 0.086 -0.927 -0.365 141 119 97 0 0
-1.0915 1.8319 0.2774 0.423 -0.804 -0.418 129 106 81 0 0
-1.0884 1.8334 0.2777 0.423 -0.804 -0.418 126 100 82 0 0
-1.0791 1.8380 0.2787 0.281 -0.905 -0.319 173 155 140 0 0
-1.0768 1.8420 0.2794 0.447 -0.818 -0.361 184 168 155 0 0
-1.0553 1.8669 0.2842 0.891 -0.391 -0.231 146 131 120 0 0
-1.0531 1.8718 0.2852 0.888 -0.409 -0.210 154 141 133 0 0
-1.1099 2.4918 0.3974 0.897 -0.441 0.023 108 93 83 0 0
-1.1055 2.4938 0.3979 0.757 -0.577 -0.306 97 84 75 0 0
-1.1070 2.8480 0.4624 -0.687 -0.688 0.232 61 53 43 0 0
-1.0990 2.8367 0.4604 -0.535 -0.751 0.386 62 55 45 0 0
-1.0901 2.8217 0.4578 -0.600 -0.743 0.296 56 49 40 0 0
-1.0834 2.8162 0.4569 -0.694 -0.678 0.242 49 44 35 0 0
-1.0741 2.7984 0.4538 -0.212 -0.906 0.365 49 45 36 0 0
-1.0675 2.7936 0.4530 0.114 -0.943 0.313 35 31 25 0 0
-1.0612 2.7902 0.4525 0.742 -0.645 0.184 12 10 9 0 0
-1.0570 2.7969 0.4537 0.868 -0.391 0.306 13 11 11 0 0
-0.8988 2.6077 0.4213 -0.860 -0.435 -0.266 93 79 54 0 0
-0.8934 2.6062 0.4211 -0.810 -0.381 -0.446 100 85 58 0 0
-0.8468 2.5724 0.4156 0.275 -0.192 -0.942 52 41 32 0 0
-0.7569 2.6641 0.4335 -0.390 -0.507 -0.769 55 39 33 0 0
-0.7507 2.6559 0.4320 -0.511 -0.640 -0.573 66 47 41 0 0
-0.7453 2.6559 0.4321 0.191 -0.587 -0.787 78 62 54 0 0
-0.7411 2.6685 0.4345 0.385 -0.865 -0.321 88 71 63 0 0
-0.7255 2.6763 0.4361 0.783 -0.583 -0.218 99 24 18 0 0
-0.7194 2.6687 0.4348 0.138 -0.495 -0.858 102 25 19 0 0
-0.6497 2.7864 0.4571 -0.048 -0.922 -0.383 130 48 37 0 0
-0.6445 2.7943 0.4586 0.038 -0.970 -0.239 136 58 46 0 0
-0.4895 2.9014 0.4802 0.941 -0.262 -0.215 129 35 22 0 0
-0.4584 2.9926 0.4972 0.816 -0.530 -0.230 95 23 17 0 0
0.1685 3.5310 0.6035 0.563 -0.505 0.654 29 24 20 0 0
0.2083 3.5809 0.6132 -0.084 -0.384 0.920 27 22 18 0 0
0.4082 3.5003 0.6011 -0.815 -0.333 0.474 35 30 26 0 0
0.4997 3.5593 0.6130 0.665 -0.646 -0.374 41 30 26 0 0
0.5641 2.9881 0.5098 0.037 -0.719 0.694 175 151 136 0 0
0.8506 3.7674 0.6555 0.710 -0.513 -0.483 176 158 143 0 0
0.9464 3.8042 0.6635 -0.066 -0.596 -0.800 161 148 140 0 0
0.9540 3.8024 0.6633 0.191 -0.560 -0.806 127 116 111 0 0
0.9682 3.7965 0.6624 -0.203 -0.712 0.672 161 148 140 0 0
0.9785 3.8018 0.6635 0.062 -0.998 0.020 156 143 136 0 0
0.9868 3.8018 0.6636 0.004 -0.969 -0.249 124 115 109 0 0
0.9937 3.7982 0.6630 0.315 -0.943 -0.109 135 126 121 0 0
1.0107 3.7995 0.6635 0.075 -0.940 -0.332 157 150 140 0 0
1.0974 3.8283 0.6699 0.253 -0.901 -0.352 94 81 73 0 0
1.1033 3.8226 0.6689 -0.171 -0.955 -0.243 88 75 68 0 0
1.1047 3.7866 0.6624 -0.909 -0.343 0.237 85 74 68 0 0
1.1031 3.7440 0.6546 -0.853 -0.518 -0.069 68 58 50 0 0
1.1126 3.6909 0.6450 -0.992 -0.079 -0.094 140 125 114 0 0
1.1837 3.6176 0.6326 -0.004 -0.994 -0.106 149 138 125 0 0
1.2057 3.6305 0.6352 -0.982 -0.169 -0.084 142 130 116 0 0
1.2072 3.6169 0.6328 -0.990 -0.140 0.007 140 126 110 0 0
1.2086 3.6029 0.6303 -0.996 -0.080 0.031 123 96 76 0 0
1.2096 3.5885 0.6276 -0.994 -0.084 0.064 90 41 27 0 0
1.2106 3.5742 0.6250 -0.988 -0.130 0.086 92 34 27 0 0
1.2133 3.5634 0.6231 -0.974 -0.204 0.098 97 58 47 0 0
1.2184 3.5577 0.6221 -0.956 -0.290 0.034 146 126 111 0 0
1.2202 3.5453 0.6199 -0.707 -0.697 0.114 121 102 87 0 0
1.2253 3.5398 0.6190 -0.730 -0.682 -0.046 111 90 77 0 0
1.2871 3.6333 0.6368 -0.962 -0.270 0.045 80 72 60 0 0
1.3945 3.6235 0.6364 -0.414 -0.905 -0.098 73 64 57 0 0
1.4248 3.5033 0.6149 0.785 -0.617 -0.054 136 130 113 0 0
1.5292 3.6053 0.6349 0.059 -0.637 0.769 108 73 53 0 0
1.5350 3.6014 0.6342 -0.234 -0.513 0.826 100 68 50 0 0
1.5446 3.6042 0.6349 -0.888 -0.141 0.438 76 49 35 0 0
1.5382 3.5649 0.6276 -0.830 -0.294 0.474 100 65 42 0 0
1.5384 3.5377 0.6227 0.449 -0.798 0.402 87 62 42 0 0
1.5398 3.5266 0.6207 -0.417 -0.761 0.496 125 113 101 0 0
1.5456 3.5230 0.6201 -0.417 -0.761 0.496 165 163 159 0 0
1.5486 3.5013 0.6162 -0.647 -0.535 0.544 197 193 190 0 0
1.5836 3.5074 0.6177 -0.303 -0.899 -0.316 208 204 198 0 0
1.5860 3.4982 0.6161 0.178 -0.954 -0.243 207 203 198 0 0
1.5914 3.4941 0.6154 0.373 -0.902 -0.218 204 200 196 0 0
1.8314 3.7809 0.6708 -0.994 -0.094 -0.060 120 115 109 0 0
1.8101 3.6929 0.6545 -0.796 -0.432 -0.423 146 141 133 0 0
1.8142 3.6862 0.6534 -0.791 -0.459 -0.405 150 145 139 0 0
1.8174 3.6780 0.6519 -0.637 -0.653 -0.410 154 149 143 0 0
1.8224 3.6730 0.6510 -0.568 -0.706 -0.424 141 136 130 0 0
1.8284 3.6693 0.6505 -0.316 -0.782 -0.537 88 83 77 0 0
1.8313 3.6610 0.6490 -0.841 -0.442 -0.312 164 160 154 0 0
1.8353 3.6543 0.6478 -0.841 -0.442 -0.312 168 165 158 0 0
1.8442 3.6427 0.6458 -0.830 -0.483 -0.279 172 169 162 0 0
1.8475 3.6351 0.6445 -0.713 -0.587 -0.384 129 126 119 0 0
1.8519 3.6292 0.6434 -0.625 -0.629 -0.463 138 135 129 0 0
1.8572 3.6248 0.6427 -0.600 -0.713 -0.363 178 175 170 0 0
1.8626 3.6205 0.6420 -0.636 -0.678 -0.369 179 176 172 0 0
1.3233 2.4485 0.4213 -0.351 -0.807 -0.474 70 60 51 0 0
1.3270 2.4460 0.4209 -0.314 -0.724 -0.614 74 64 58 0 0
-1.3982 2.1259 0.3227 0.980 -0.171 -0.101 12 12 12 0 0
-1.3970 2.1329 0.3240 0.981 -0.161 -0.105 13 12 12 0 0
-1.1061 1.8326 0.2737 0.290 -0.827 -0.482 149 129 111 0 0
-1.1028 1.8336 0.2739 0.270 -0.829 -0.490 147 125 107 0 0
-1.0995 1.8344 0.2741 -0.033 -0.872 -0.489 140 114 96 0 0
-1.0958 1.8339 0.2740 0.086 -0.927 -0.365 143 118 95 0 0
-1.0924 1.8346 0.2742 0.258 -0.865 -0.430 144 121 96 0 0
-1.0887 1.8344 0.2742 0.442 -0.814 -0.376 146 121 100 0 0
-1.0743 1.8457 0.2764 0.593 -0.701 -0.397 178 164 148 0 0
-1.0559 1.8688 0.2808 0.858 -0.425 -0.290 145 130 119 0 0
-1.0536 1.8733 0.2817 0.867 -0.409 -0.285 150 136 127 0 0
-1.4205 3.3723 0.5470 -0.015 -0.725 0.689 137 121 112 0 0
-1.0907 2.2180 0.3433 0.499 -0.850 -0.172 134 120 107 0 0
-1.1127 2.5031 0.3944 0.316 -0.925 0.213 108 94 80 0 0
-1.1063 2.4973 0.3934 0.742 -0.588 -0.321 109 97 86 0 0
-1.1061 2.8437 0.4559 -0.661 -0.684 0.307 58 49 40 0 0
-1.0987 2.8354 0.4544 -0.636 -0.658 0.404 62 54 45 0 0
-1.0907 2.8244 0.4526 -0.637 -0.672 0.377 68 61 52 0 0
-1.0826 2.8128 0.4506 -0.665 -0.669 0.331 46 43 34 0 0
-1.0736 2.7962 0.4477 -0.203 -0.934 0.295 49 46 37 0 0
-1.0671 2.7917 0.4470 0.114 -0.943 0.313 36 31 26 0 0
-1.0609 2.7888 0.4465 0.742 -0.645 0.184 15 12 12 0 0
-0.8811 2.5943 0.4138 -0.602 -0.312 -0.735 95 76 61 0 0
-0.8749 2.5878 0.4127 -0.424 -0.344 -0.838 105 76 60 0 0
-0.7593 2.6888 0.4324 -0.488 -0.740 0.463 59 44 36 0 0
-0.7511 2.6603 0.4274 -0.466 -0.664 -0.584 71 54 46 0 0
-0.7463 2.6666 0.4286 0.027 -0.914 -0.406 85 73 63 0 0
-0.7256 2.6772 0.4308 0.734 -0.646 -0.209 100 41 39 0 0
-0.7202 2.6785 0.4311 0.664 -0.643 -0.382 102 25 18 0 0
-0.7100 2.6871 0.4327 0.917 -0.329 -0.224 103 23 16 0 0
-0.6554 2.7866 0.4514 0.300 -0.862 -0.409 126 40 31 0 0
-0.6499 2.7886 0.4518 -0.048 -0.922 -0.383 130 48 40 0 0
-0.6444 2.7928 0.4526 0.143 -0.935 -0.326 138 60 51 0 0
-0.6005 2.8421 0.4621 0.931 -0.296 -0.216 134 36 21 0 0
-0.4954 2.9015 0.4742 0.966 -0.231 -0.113 132 36 21 0 0
-0.4895 2.9018 0.4743 0.948 -0.255 -0.191 128 33 21 0 0
-0.4584 2.9923 0.4910 0.871 -0.428 -0.243 93 21 15 0 0
0.1645 3.5098 0.5923 0.450 -0.488 0.748 32 27 23 0 0
0.1758 3.5303 0.5961 0.418 -0.435 0.797 32 27 23 0 0
0.1852 3.5399 0.5980 0.355 -0.457 0.815 29 24 20 0 0
0.5012 3.5646 0.6065 0.665 -0.646 -0.374 42 31 27 0 0
0.5244 3.5655 0.6070 -0.652 -0.692 -0.310 102 85 68 0 0
0.5622 2.9827 0.5025 0.107 -0.662 0.742 130 96 83 0 0
0.8661 3.7878 0.6515 0.610 -0.546 -0.575 173 155 143 0 0
0.9651 3.7884 0.6528 -0.203 -0.712 0.672 163 150 143 0 0
0.9790 3.8029 0.6556 0.037 -0.980 -0.195 168 156 147 0 0
1.0332 3.8142 0.6584 0.259 -0.665 -0.700 152 144 134 0 0
1.0512 3.8176 0.6592 0.199 -0.652 -0.731 156 149 139 0 0
1.0793 3.8250 0.6609 0.139 -0.836 -0.530 157 149 140 0 0
1.0889 3.8281 0.6616 0.287 -0.818 -0.498 127 117 107 0 0
1.0975 3.8285 0.6618 -0.088 -0.863 -0.497 92 78 70 0 0
1.1024 3.8203 0.6604 -0.527 -0.743 -0.413 82 69 63 0 0
1.0990 3.7345 0.6449 -0.654 -0.694 -0.301 75 65 55 0 0
1.1124 3.6905 0.6371 -0.997 -0.077 0.000 139 125 116 0 0
1.1119 3.6710 0.6336 -0.999 -0.033 0.007 143 130 121 0 0
1.1199 3.5995 0.6208 0.020 -0.504 -0.864 151 146 140 0 0
1.1452 3.6029 0.6217 0.581 -0.684 -0.442 151 147 141 0 0
1.2061 3.6315 0.6277 -0.981 -0.170 -0.090 134 118 97 0 0
1.2081 3.6186 0.6254 -0.991 -0.118 -0.064 132 117 89 0 0
1.2090 3.6038 0.6227 -0.998 -0.058 -0.005 127 104 56 0 0
1.2104 3.5902 0.6203 -0.999 -0.050 -0.013 125 97 31 0 0
1.2126 3.5783 0.6182 -0.992 -0.122 -0.026 125 96 35 0 0
1.2147 3.5662 0.6160 -0.986 -0.162 -0.033 130 107 72 0 0
1.2186 3.5581 0.6146 -0.964 -0.222 -0.148 140 123 100 0 0
1.2265 3.5582 0.6147 -0.703 -0.375 -0.604 118 100 79 0 0
1.2315 3.5525 0.6138 -0.543 -0.484 -0.686 107 90 73 0 0
1.2861 3.6476 0.6316 -0.942 -0.300 -0.150 89 77 64 0 0
1.2875 3.6342 0.6292 -0.962 -0.270 -0.042 82 75 63 0 0
1.4170 3.5032 0.6073 -0.491 -0.652 -0.578 116 110 97 0 0
1.4294 3.5116 0.6090 0.776 -0.605 -0.181 141 135 115 0 0
1.5237 3.5956 0.6253 0.057 -0.524 -0.850 98 65 44 0 0
1.5411 3.5979 0.6260 -0.895 -0.146 0.422 89 57 43 0 0
1.5345 3.5724 0.6213 -0.884 -0.246 0.398 92 60 38 0 0
1.5366 3.5621 0.6194 -0.884 -0.246 0.398 108 73 47 0 0
1.5340 3.5438 0.6161 -0.862 -0.250 0.442 103 69 49 0 0
1.5346 3.5312 0.6138 -0.738 -0.377 0.559 91 65 44 0 0
1.5377 3.5229 0.6124 -0.738 -0.377 0.559 140 128 117 0 0
1.5417 3.5162 0.6112 -0.718 -0.375 0.586 169 164 161 0 0
1.5425 3.5041 0.6091 -0.755 -0.313 0.576 182 179 176 0 0
1.5446 3.4945 0.6074 -0.733 -0.337 0.591 188 185 183 0 0
1.5394 3.4723 0.6033 -0.801 -0.149 0.580 190 189 185 0 0
1.5872 3.5002 0.6089 0.178 -0.954 -0.243 198 194 192 0 0
1.5937 3.4980 0.6086 0.543 -0.840 -0.003 194 190 187 0 0
1.6003 3.4960 0.6084 -0.132 -0.960 -0.247 101 96 92 0 0
1.8284 3.8177 0.6693 -0.958 -0.236 -0.165 116 109 104 0 0
1.8298 3.8061 0.6672 -0.986 -0.097 -0.133 117 109 106 0 0
1.8196 3.7483 0.6566 -0.989 -0.117 0.090 132 124 119 0 0
1.8162 3.6893 0.6460 -0.868 -0.485 -0.105 152 147 142 0 0
1.8169 3.6774 0.6438 -0.560 -0.801 -0.212 155 150 144 0 0
1.8232 3.6741 0.6433 -0.468 -0.832 -0.297 115 110 104 0 0
1.8293 3.6708 0.6428 -0.372 -0.889 -0.267 111 106 100 0 0
1.8333 3.6641 0.6417 -0.859 -0.492 -0.139 167 162 156 0 0
1.8369 3.6569 0.6404 -0.878 -0.446 -0.173 169 166 159 0 0
1.8413 3.6509 0.6394 -0.861 -0.469 -0.196 171 168 161 0 0
1.8460 3.6454 0.6385 -0.871 -0.428 -0.243 172 169 162 0 0
1.8492 3.6377 0.6371 -0.862 -0.434 -0.262 102 99 93 0 0
1.8536 3.6318 0.6361 -0.641 -0.670 -0.376 164 160 155 0 0
1.8588 3.6272 0.6353 -0.600 -0.713 -0.363 178 175 170 0 0
1.8642 3.6230 0.6347 -0.600 -0.713 -0.363 179 175 172 0 0
1.3200 2.4516 0.4165 -0.345 -0.866 -0.362 75 66 56 0 0
1.3276 2.4467 0.4158 -0.502 -0.718 -0.482 69 62 55 0 0
-1.3983 2.1263 0.3185 0.981 -0.176 -0.085 12 12 12 0 0
-1.1034 1.8354 0.2705 0.270 -0.829 -0.490 149 127 111 0 0
-1.0995 1.8344 0.2704 -0.009 -0.928 -0.373 148 125 108 0 0
-1.0962 1.8352 0.2706 0.086 -0.927 -0.365 141 119 97 0 0
-1.0930 1.8363 0.2708 0.230 -0.835 -0.499 151 128 104 0 0
-1.0892 1.8357 0.2707 0.442 -0.814 -0.376 133 107 84 0 0
-1.0748 1.8473 0.2730 0.610 -0.677 -0.411 175 160 146 0 0
-1.0564 1.8706 0.2774 0.844 -0.424 -0.328 150 137 127 0 0
-1.0542 1.8754 0.2783 0.868 -0.396 -0.301 144 130 119 0 0
-1.0959 2.2208 0.3393 0.570 -0.640 0.515 136 122 110 0 0
-1.0921 2.2232 0.3397 0.705 -0.551 0.447 133 118 101 0 0
-1.0917 2.2380 0.3424 0.976 -0.170 0.133 120 105 89 0 0
-1.1618 2.5390 0.3951 0.367 -0.310 0.877 109 95 83 0 0
-1.1252 2.4938 0.3875 -0.016 -0.910 -0.415 90 76 60 0 0
-1.1213 2.4980 0.3883 -0.361 -0.903 -0.234 106 93 77 0 0
-1.1159 2.4959 0.3880 -0.361 -0.903 -0.234 101 86 73 0 0
-1.1124 2.5020 0.3891 0.316 -0.925 0.213 107 93 79 0 0
-1.1068 2.4992 0.3887 0.742 -0.588 -0.321 104 91 79 0 0
-1.0669 2.7909 0.4412 0.162 -0.987 0.005 33 29 23 0 0
-0.8705 2.5931 0.4084 -0.397 -0.349 -0.849 66 41 29 0 0
-0.8646 2.5883 0.4077 -0.397 -0.349 -0.849 77 52 39 0 0
-0.8601 2.5933 0.4086 0.450 -0.410 -0.793 90 68 53 0 0
-0.8553 2.5966 0.4093 0.470 -0.392 -0.791 92 71 52 0 0
-0.7661 2.7027 0.4293 -0.474 -0.648 0.596 74 63 55 0 0
-0.7589 2.6846 0.4262 -0.488 -0.740 0.463 62 47 40 0 0
-0.7529 2.6787 0.4252 -0.419 -0.843 0.338 85 71 63 0 0
-0.7206 2.6831 0.4264 0.653 -0.733 -0.189 100 31 26 0 0
-0.7151 2.6822 0.4263 0.388 -0.846 -0.364 104 24 17 0 0
-0.7097 2.6835 0.4266 0.746 -0.648 0.154 103 23 16 0 0
-0.7045 2.6866 0.4272 0.502 -0.782 0.369 104 23 17 0 0
-0.6265 2.7766 0.4442 -0.979 -0.178 -0.097 145 74 61 0 0
-0.6005 2.8437 0.4565 0.928 -0.322 -0.190 136 36 20 0 0
-0.5944 2.8340 0.4549 0.881 -0.308 -0.358 136 37 21 0 0
-0.4954 2.9044 0.4687 0.963 -0.237 -0.131 134 37 23 0 0
-0.4895 2.9058 0.4690 0.948 -0.255 -0.191 129 34 22 0 0
-0.2187 2.3476 0.3730 -0.087 -0.424 0.901 25 20 16 0 0
0.1600 3.4864 0.5807 0.428 -0.428 0.796 32 27 23 0 0
0.1801 3.5140 0.5859 0.321 -0.381 0.867 30 25 21 0 0
0.2160 3.5814 0.5984 0.123 -0.287 0.950 27 22 18 0 0
0.4891 3.5760 0.6009 0.020 -0.675 -0.737 33 28 24 0 0
0.4969 3.5763 0.6010 0.074 -0.683 -0.727 36 29 27 0 0
0.5047 3.5770 0.6013 0.074 -0.683 -0.727 47 34 31 0 0
0.5254 3.5690 0.6001 -0.620 -0.668 -0.411 127 113 96 0 0
0.5588 2.9731 0.4944 0.107 -0.662 0.742 85 61 54 0 0
0.5645 2.9711 0.4941 -0.203 -0.630 0.750 147 127 114 0 0
0.8700 3.7986 0.6454 0.610 -0.546 -0.575 161 143 131 0 0
0.8801 3.8037 0.6464 -0.154 -0.400 -0.903 162 147 137 0 0
0.9796 3.8045 0.6479 0.037 -0.980 -0.195 158 149 139 0 0
0.9880 3.8047 0.6480 0.133 -0.936 -0.327 164 155 145 0 0
0.9948 3.8012 0.6475 0.468 -0.874 -0.132 155 146 137 0 0
1.0128 3.8048 0.6483 0.202 -0.898 -0.391 167 158 149 0 0
1.0904 3.8317 0.6541 0.496 -0.690 -0.526 116 104 95 0 0
1.0992 3.8326 0.6544 -0.088 -0.863 -0.497 93 80 72 0 0
1.1003 3.7376 0.6375 -0.694 -0.717 0.072 79 69 59 0 0
1.1108 3.6684 0.6253 -0.992 -0.039 0.123 143 130 121 0 0
1.1383 3.6052 0.6144 0.409 -0.688 -0.599 172 169 160 0 0
1.1913 3.6338 0.6202 -0.240 -0.340 -0.909 133 117 94 0 0
1.2046 3.6453 0.6224 -0.980 -0.130 -0.152 130 114 89 0 0
1.2067 3.6326 0.6201 -0.976 -0.178 -0.122 129 112 82 0 0
1.2093 3.6212 0.6181 -0.990 -0.097 -0.106 125 109 74 0 0
1.2097 3.6054 0.6153 -0.998 -0.052 -0.035 147 130 47 0 0
1.2105 3.5904 0.6127 -0.999 -0.050 -0.013 155 137 26 0 0
1.2131 3.5792 0.6107 -0.989 -0.125 -0.076 147 129 39 0 0
1.2172 3.5714 0.6094 -0.951 -0.189 -0.244 144 126 80 0 0
1.2201 3.5611 0.6076 -0.942 -0.191 -0.275 138 123 94 0 0
1.2284 3.5622 0.6079 -0.688 -0.278 -0.670 121 105 78 0 0
1.2875 3.6506 0.6244 -0.895 -0.356 -0.270 77 68 58 0 0
1.3824 3.6312 0.6221 0.096 -0.967 0.236 72 65 55 0 0
1.4217 3.5119 0.6014 -0.507 -0.312 -0.804 126 118 106 0 0
1.4336 3.4633 0.5929 -0.230 -0.296 -0.927 100 65 45 0 0
1.5242 3.5965 0.6178 -0.103 -0.963 0.247 80 50 31 0 0
1.5374 3.5916 0.6170 -0.877 -0.132 0.462 89 60 41 0 0
1.5327 3.5554 0.6105 -0.887 -0.252 0.388 82 58 41 0 0
1.5309 3.5384 0.6075 -0.849 -0.254 0.463 67 47 37 0 0
1.5311 3.5251 0.6051 -0.738 -0.377 0.559 84 67 51 0 0
1.5352 3.5186 0.6040 -0.884 -0.230 0.407 150 143 133 0 0
1.5373 3.5087 0.6023 -0.932 -0.111 0.346 174 169 165 0 0
1.5392 3.4986 0.6005 -0.932 -0.111 0.345 184 180 179 0 0
1.5399 3.4864 0.5983 -0.932 -0.111 0.345 189 185 184 0 0
1.5426 3.4778 0.5968 -0.857 -0.181 0.483 191 189 187 0 0
1.5703 3.4982 0.6008 0.125 -0.964 0.235 194 194 189 0 0
1.5824 3.5053 0.6023 0.009 -0.993 -0.120 196 194 191 0 0
1.5903 3.5054 0.6024 0.009 -0.993 -0.120 197 194 191 0 0
1.5981 3.5054 0.6025 0.009 -0.993 -0.120 182 178 175 0 0
1.8401 3.8510 0.6671 0.663 -0.657 -0.360 110 103 96 0 0
1.8294 3.8193 0.6613 -0.958 -0.236 -0.165 116 109 102 0 0
1.8304 3.8070 0.6592 -0.990 -0.116 -0.083 116 109 103 0 0
1.8190 3.7472 0.6484 -0.989 -0.117 0.090 132 124 120 0 0
1.8096 3.7187 0.6432 -0.993 -0.117 -0.011 138 129 123 0 0
1.8106 3.7069 0.6411 -0.989 -0.124 -0.080 143 136 128 0 0
1.8172 3.6910 0.6383 -0.878 -0.473 -0.075 153 148 142 0 0
1.8178 3.6788 0.6362 -0.560 -0.801 -0.212 155 150 144 0 0
1.8244 3.6761 0.6358 -0.468 -0.832 -0.297 96 91 85 0 0
1.8305 3.6727 0.6352 -0.255 -0.954 -0.156 128 123 117 0 0
1.8340 3.6652 0.6339 -0.859 -0.492 -0.139 165 160 154 0 0
1.8470 3.6469 0.6309 -0.911 -0.383 -0.156 166 163 157 0 0
1.8550 3.6339 0.6286 -0.579 -0.711 -0.400 174 170 165 0 0
1.8605 3.6298 0.6280 -0.579 -0.711 -0.400 179 175 171 0 0
1.8658 3.6254 0.6273 -0.600 -0.713 -0.363 172 168 165 0 0
1.3212 2.4532 0.4115 -0.345 -0.866 -0.362 76 67 59 0 0
1.3291 2.4488 0.4108 -0.546 -0.678 -0.492 68 61 53 0 0
-1.3986 2.1269 0.3144 0.981 -0.176 -0.085 12 12 12 0 0
-1.3976 2.1342 0.3157 0.984 -0.163 -0.066 14 13 12 0 0
-1.1040 1.8372 0.2671 0.290 -0.827 -0.482 152 130 111 0 0
-1.1007 1.8380 0.2673 0.168 -0.927 -0.336 153 135 116 0 0
-1.0973 1.8386 0.2674 -0.022 -0.953 -0.303 154 136 114 0 0
-1.0936 1.8383 0.2674 0.197 -0.832 -0.519 157 137 113 0 0
-1.0780 1.8460 0.2690 0.638 -0.672 -0.375 176 160 145 0 0
-1.0753 1.8489 0.2695 0.610 -0.677 -0.411 177 163 148 0 0
-1.0568 1.8719 0.2738 0.837 -0.411 -0.361 153 139 130 0 0
-1.0544 1.8762 0.2746 0.838 -0.427 -0.340 140 126 115 0 0
-1.0950 2.2176 0.3342 0.570 -0.640 0.515 135 119 108 0 0
-1.0914 2.2206 0.3348 0.661 -0.572 0.486 134 118 104 0 0
-1.0917 2.2380 0.3378 0.976 -0.172 0.131 103 87 73 0 0
-1.0895 2.2467 0.3394 0.978 -0.182 0.102 115 100 88 0 0
-1.1539 2.5281 0.3881 0.301 -0.339 0.891 115 101 91 0 0
-1.1313 2.4981 0.3831 0.171 -0.950 0.260 112 98 85 0 0
-1.1266 2.4992 0.3834 -0.123 -0.946 0.301 105 91 76 0 0
-1.1217 2.4994 0.3835 -0.361 -0.903 -0.234 100 87 71 0 0
-1.1162 2.4973 0.3832 -0.361 -0.903 -0.234 90 74 61 0 0
-1.1121 2.5009 0.3839 0.316 -0.925 0.213 104 91 80 0 0
-1.1072 2.5012 0.3840 0.748 -0.624 -0.227 104 92 83 0 0
-1.0893 2.8177 0.4399 -0.599 -0.720 0.351 54 46 36 0 0
-1.0801 2.8005 0.4370 -0.601 -0.636 0.485 54 47 37 0 0
-1.0724 2.7903 0.4353 -0.634 -0.623 0.458 51 45 36 0 0
-1.0651 2.7819 0.4339 -0.634 -0.623 0.458 39 34 28 0 0
-0.7894 2.5701 0.4001 -0.584 -0.460 0.669 108 61 32 0 0
-0.7819 2.5496 0.3966 -0.817 -0.377 -0.437 99 62 42 0 0
-0.7651 2.6927 0.4220 -0.735 -0.632 0.245 71 59 50 0 0
-0.7583 2.6787 0.4196 -0.573 -0.780 0.249 69 58 49 0 0
-0.7526 2.6762 0.4193 -0.488 -0.740 0.463 125 112 103 0 0
-0.7472 2.6767 0.4194 -0.164 -0.834 0.526 127 115 105 0 0
-0.7152 2.6833 0.4210 0.361 -0.874 -0.325 104 24 19 0 0
-0.7095 2.6805 0.4206 0.162 -0.961 -0.223 104 24 16 0 0
-0.7043 2.6837 0.4212 0.664 -0.686 0.298 104 24 18 0 0
-0.6265 2.7771 0.4386 -0.979 -0.164 -0.118 145 77 64 0 0
-0.4710 2.9567 0.4722 0.937 -0.329 -0.121 108 25 17 0 0
-0.4458 3.0045 0.4809 0.407 -0.889 0.212 23 15 14 0 0
0.1731 3.4778 0.5721 0.359 -0.394 0.846 32 27 23 0 0
0.1996 3.4995 0.5762 0.186 -0.327 0.927 26 21 17 0 0
0.4223 3.4411 0.5688 -0.731 -0.423 -0.536 37 32 28 0 0
0.4984 3.5818 0.5945 0.042 -0.686 -0.727 39 30 28 0 0
0.5056 3.5801 0.5943 0.375 -0.619 -0.690 56 38 33 0 0
0.5273 3.5757 0.5938 -0.189 -0.637 -0.747 157 145 130 0 0
0.8735 3.8082 0.6391 0.622 -0.579 -0.528 163 148 137 0 0
0.8867 3.8217 0.6416 0.676 -0.554 -0.486 147 133 124 0 0
0.9452 3.8228 0.6426 0.082 -0.867 -0.492 165 155 146 0 0
0.9536 3.8231 0.6427 -0.179 -0.862 -0.474 167 157 147 0 0
0.9613 3.8216 0.6426 -0.179 -0.862 -0.474 168 158 148 0 0
0.9671 3.8151 0.6415 -0.499 -0.712 -0.495 166 155 147 0 0
0.9803 3.8064 0.6401 0.116 -0.988 -0.101 159 150 141 0 0
0.9887 3.8066 0.6403 0.043 -0.989 -0.144 155 146 139 0 0
1.0166 3.8142 0.6419 0.352 -0.838 -0.416 156 147 137 0 0
1.0458 3.8248 0.6442 0.042 -0.939 -0.340 157 150 139 0 0
1.0927 3.8371 0.6469 -0.074 -0.847 -0.526 97 84 76 0 0
1.1009 3.8367 0.6470 -0.088 -0.863 -0.497 91 78 70 0 0
1.0999 3.7367 0.6294 -0.637 -0.667 0.387 71 61 51 0 0
1.1061 3.7321 0.6286 -0.887 -0.331 0.323 71 61 52 0 0
1.1095 3.7211 0.6267 -0.887 -0.331 0.323 80 69 64 0 0
1.1112 3.7062 0.6241 -0.942 -0.191 0.275 128 116 108 0 0
1.1133 3.6925 0.6217 -0.942 -0.191 0.275 144 130 121 0 0
1.1153 3.6788 0.6194 -0.942 -0.191 0.275 143 129 120 0 0
1.1178 3.6661 0.6171 -0.936 -0.218 0.278 148 135 126 0 0
1.2043 3.6446 0.6145 -0.981 -0.133 -0.140 129 113 85 0 0
1.2027 3.6243 0.6109 -0.987 -0.151 0.047 128 112 78 0 0
1.2049 3.6119 0.6087 -0.982 -0.157 0.105 127 110 71 0 0
1.2072 3.6001 0.6067 -0.991 -0.062 0.115 151 134 39 0 0
1.2076 3.5843 0.6039 -0.988 -0.067 0.139 152 135 24 0 0
1.2125 3.5780 0.6028 -0.971 -0.240 -0.013 140 124 45 0 0
1.2845 3.6444 0.6154 -0.590 -0.356 -0.724 71 65 57 0 0
1.2882 3.6355 0.6139 -0.618 -0.344 -0.706 72 66 58 0 0
1.3305 3.6082 0.6096 0.051 -0.662 0.748 79 73 64 0 0
1.3448 3.6206 0.6120 -0.039 -0.786 0.617 77 73 64 0 0
1.3755 3.6179 0.6119 0.037 -0.811 0.584 76 67 58 0 0
1.3752 3.6020 0.6091 -0.029 -0.648 0.761 69 61 53 0 0
1.4085 3.5746 0.6047 -0.376 -0.504 0.778 74 66 55 0 0
1.4034 3.5504 0.6004 -0.413 -0.561 0.717 83 71 58 0 0
1.3764 3.4858 0.5887 0.121 -0.946 0.302 95 79 69 0 0
1.4157 3.5009 0.5918 0.764 -0.595 -0.251 132 123 113 0 0
1.4365 3.5246 0.5963 0.776 -0.605 -0.181 129 122 108 0 0
1.4397 3.4741 0.5874 -0.206 -0.343 -0.917 77 50 32 0 0
1.5221 3.6069 0.6118 -0.381 -0.875 -0.298 76 52 34 0 0
1.5265 3.5445 0.6009 -0.788 -0.265 0.555 56 44 35 0 0
1.5274 3.5323 0.5988 -0.771 -0.249 0.586 55 46 39 0 0
1.5284 3.5205 0.5967 -0.790 -0.247 0.561 65 57 47 0 0
1.5306 3.5106 0.5950 -0.819 -0.245 0.519 94 90 80 0 0
1.5348 3.5044 0.5939 -0.942 -0.110 0.318 156 154 148 0 0
1.5378 3.4695 0.5878 -0.961 -0.109 0.254 191 189 187 0 0
1.5366 3.4544 0.5852 -0.958 -0.117 0.260 193 192 189 0 0
1.5732 3.5030 0.5942 0.241 -0.940 -0.240 195 194 190 0 0
1.5918 3.5080 0.5953 0.100 -0.960 -0.263 195 194 190 0 0
1.6030 3.5134 0.5964 -0.866 -0.229 -0.445 154 152 148 0 0
1.8291 3.8189 0.6530 -0.979 -0.194 -0.068 115 108 102 0 0
1.8309 3.8078 0.6511 -0.976 -0.198 -0.093 114 107 102 0 0
1.8076 3.7155 0.6346 -0.995 -0.092 0.045 139 131 123 0 0
1.8145 3.7131 0.6342 -0.995 -0.089 0.041 144 138 130 0 0
1.8176 3.6915 0.6305 -0.878 -0.473 -0.075 153 148 142 0 0
1.8187 3.6802 0.6285 -0.560 -0.801 -0.212 156 151 144 0 0
1.8257 3.6781 0.6282 -0.468 -0.832 -0.297 100 95 89 0 0
1.8312 3.6738 0.6275 -0.255 -0.954 -0.156 121 118 111 0 0
1.8345 3.6660 0.6262 -0.881 -0.426 -0.206 156 152 145 0 0
1.8382 3.6589 0.6250 -0.881 -0.426 -0.206 91 87 80 0 0
1.8428 3.6532 0.6240 -0.869 -0.479 -0.126 150 146 140 0 0
1.8476 3.6479 0.6232 -0.947 -0.321 -0.028 154 149 144 0 0
1.8620 3.6321 0.6206 -0.552 -0.798 -0.243 179 175 170 0 0
1.8674 3.6279 0.6199 -0.600 -0.713 -0.363 131 128 123 0 0
1.3014 2.4874 0.4120 0.592 -0.570 -0.570 141 136 131 0 0
1.3181 2.4565 0.4067 -0.345 -0.866 -0.362 77 68 61 0 0
1.3264 2.4527 0.4062 -0.442 -0.758 -0.479 74 64 59 0 0
1.3300 2.4501 0.4057 -0.757 -0.513 -0.405 76 65 59 0 0
-1.3978 2.1347 0.3115 0.985 -0.163 -0.055 13 12 12 0 0
-1.1011 1.8392 0.2638 0.168 -0.927 -0.336 152 133 113 0 0
-1.0981 1.8411 0.2642 -0.050 -0.905 -0.423 152 131 111 0 0
-1.0947 1.8415 0.2643 -0.042 -0.892 -0.450 156 135 112 0 0
-1.0906 1.8402 0.2641 0.241 -0.826 -0.510 153 129 109 0 0
-1.0873 1.8410 0.2643 0.301 -0.823 -0.481 147 118 103 0 0
-1.0574 1.8737 0.2704 0.837 -0.411 -0.361 142 127 118 0 0
-1.0892 2.2456 0.3347 0.978 -0.182 0.102 107 89 80 0 0
-1.1220 2.5008 0.3787 -0.361 -0.903 -0.234 101 87 71 0 0
-1.1166 2.4989 0.3784 -0.395 -0.902 -0.177 90 73 59 0 0
-1.1119 2.4999 0.3786 0.140 -0.942 0.305 106 93 83 0 0
-1.1188 2.5485 0.3870 0.627 -0.441 0.643 113 102 93 0 0
