ply
format ascii 1.0
element vertex 855
property float x
property float y
property float z
property float nx
property float ny
property float nz
property uchar diffuse_red
property uchar diffuse_green
property uchar diffuse_blue
property uchar class
property uchar detection
end_header
1.1241 2.5106 -0.4838 -0.909 -0.366 -0.202 44 37 29 0 0
1.1427 2.4825 -0.4747 -0.235 -0.886 -0.400 104 74 48 0 0
1.2634 2.3751 -0.4323 -0.508 -0.512 -0.692 104 75 51 0 0
1.2663 2.3598 -0.4284 -0.051 -0.946 -0.319 101 75 52 0 0
1.2707 2.3614 -0.4281 -0.020 -0.943 -0.333 102 76 53 0 0
1.2749 2.3621 -0.4277 0.324 -0.899 -0.294 101 75 52 0 0
1.2787 2.3616 -0.4270 0.550 -0.833 0.063 98 72 50 0 0
-1.3007 2.2025 -0.7768 0.434 -0.729 -0.529 113 88 64 0 0
-1.2968 2.2048 -0.7767 0.504 -0.729 -0.463 110 86 60 0 0
-1.2932 2.2075 -0.7768 -0.025 -0.860 -0.510 105 81 57 0 0
-1.2855 2.2052 -0.7751 -0.286 -0.839 -0.464 78 57 40 0 0
-1.1698 2.3373 -0.7884 0.817 -0.330 -0.473 56 45 33 0 0
-1.1896 2.3730 -0.7995 0.513 -0.474 -0.716 53 43 33 0 0
-1.1942 2.3879 -0.8037 0.097 -0.747 -0.658 53 43 33 0 0
-1.1907 2.3915 -0.8040 0.298 -0.685 -0.665 53 43 33 0 0
-0.8882 2.4526 -0.7732 -0.347 -0.798 -0.492 136 117 98 0 0
-0.8851 2.5000 -0.7837 -0.675 -0.665 -0.321 160 146 133 0 0
-0.8736 2.4902 -0.7797 -0.392 -0.819 0.419 168 155 143 0 0
-0.8662 2.4875 -0.7780 -0.220 -0.631 0.744 173 159 147 0 0
-0.8601 2.4873 -0.7770 -0.052 -0.315 0.948 178 164 148 0 0
-0.8549 2.4885 -0.7765 -0.104 -0.278 0.955 179 166 149 0 0
-0.6669 2.2431 -0.6922 -0.581 -0.524 0.623 252 251 252 0 0
-0.5748 2.3160 -0.6954 -0.021 -0.412 -0.911 233 229 228 0 0
-0.5694 2.3160 -0.6946 0.043 -0.416 -0.908 206 202 200 0 0
-0.5649 2.3178 -0.6943 0.089 -0.342 -0.936 186 182 181 0 0
-0.4969 2.4920 -0.7243 0.994 0.017 -0.106 56 50 50 0 0
-0.3030 2.4446 -0.6847 0.408 -0.752 -0.517 58 52 52 0 0
-0.2973 2.4435 -0.6836 0.688 -0.645 -0.332 59 53 53 0 0
-0.2941 2.4501 -0.6846 0.654 -0.682 -0.327 62 56 56 0 0
-0.2898 2.4536 -0.6848 0.763 -0.615 -0.198 65 59 59 0 0
-0.2861 2.4589 -0.6855 0.739 -0.637 -0.221 67 62 61 0 0
-0.2841 2.4695 -0.6876 0.770 -0.630 -0.101 69 65 63 0 0
-0.0735 2.2141 -0.5977 0.898 -0.121 -0.422 84 68 49 0 0
-0.0728 2.2296 -0.6012 0.900 -0.139 -0.412 83 68 50 0 0
0.0078 2.2954 -0.6044 0.241 -0.262 -0.934 96 90 83 0 0
0.0111 2.3026 -0.6055 0.241 -0.262 -0.934 85 79 73 0 0
0.0145 2.3098 -0.6067 0.241 -0.262 -0.934 91 87 83 0 0
0.0443 2.2339 -0.5848 0.890 -0.394 0.230 81 80 77 0 0
0.0729 2.2305 -0.5798 0.395 -0.276 -0.876 92 92 92 0 0
0.0757 2.2405 -0.5816 0.395 -0.276 -0.876 86 86 85 0 0
0.0786 2.2505 -0.5835 0.395 -0.276 -0.876 80 80 78 0 0
0.1159 2.2783 -0.5844 -0.146 -0.364 0.920 74 72 68 0 0
0.1198 2.2831 -0.5849 0.791 -0.125 0.599 70 67 63 0 0
0.1233 2.2911 -0.5863 0.856 -0.129 0.500 58 57 53 0 0
0.1432 2.2536 -0.5747 -0.200 -0.246 0.948 61 59 55 0 0
0.1986 2.2889 -0.5746 -0.053 -0.937 0.345 38 35 33 0 0
0.2119 2.2945 -0.5739 0.975 -0.158 0.157 34 30 27 0 0
0.2148 2.3096 -0.5770 0.974 -0.191 0.119 34 30 28 0 0
0.2205 2.3005 -0.5740 0.484 -0.151 0.862 35 31 28 0 0
0.2244 2.3074 -0.5750 0.444 -0.179 0.878 35 31 28 0 0
0.2282 2.3150 -0.5762 0.505 -0.158 0.849 34 30 27 0 0
0.2327 2.3164 -0.5759 0.571 -0.282 0.771 34 30 27 0 0
0.2370 2.3197 -0.5760 0.770 -0.346 0.535 34 30 27 0 0
0.2414 2.3229 -0.5761 0.922 -0.348 0.170 35 31 28 0 0
0.2451 2.3323 -0.5777 0.922 -0.386 0.021 33 31 30 0 0
0.2489 2.3412 -0.5792 0.922 -0.386 0.021 32 31 29 0 0
0.2527 2.3496 -0.5805 0.887 -0.443 -0.130 32 31 29 0 0
0.2664 2.3058 -0.5684 0.755 -0.419 -0.505 32 31 29 0 0
0.2703 2.3144 -0.5698 0.755 -0.419 -0.505 32 31 29 0 0
0.2741 2.3226 -0.5712 0.711 -0.425 -0.560 32 31 29 0 0
0.2782 2.3295 -0.5721 0.534 -0.440 -0.722 32 31 29 0 0
0.2824 2.3346 -0.5727 0.508 -0.416 -0.754 33 32 28 0 0
0.3149 2.3370 -0.5684 0.193 -0.383 -0.903 33 32 28 0 0
0.3344 2.3235 -0.5625 0.899 -0.373 -0.231 32 31 27 0 0
0.3383 2.3337 -0.5642 0.893 -0.373 -0.251 33 32 28 0 0
0.3470 2.3439 -0.5653 0.639 -0.546 -0.542 33 31 29 0 0
0.3621 2.3224 -0.5581 0.577 -0.071 0.814 33 32 30 0 0
0.3701 2.3447 -0.5620 0.576 -0.078 0.813 33 31 31 0 0
0.3912 2.2834 -0.5448 0.858 -0.258 0.444 32 31 29 0 0
0.3949 2.3025 -0.5487 0.054 -0.469 -0.881 32 30 28 0 0
0.4846 2.3220 -0.5398 0.712 -0.135 0.689 35 31 28 0 0
0.4891 2.3346 -0.5421 0.725 -0.141 0.674 37 33 29 0 0
0.4937 2.3479 -0.5445 0.713 -0.149 0.685 38 34 30 0 0
0.4983 2.3628 -0.5472 0.654 -0.174 0.736 41 36 32 0 0
0.5031 2.3969 -0.5543 0.617 -0.144 0.774 41 36 30 0 0
0.6104 2.4347 -0.5471 0.469 -0.880 -0.073 33 31 26 0 0
0.6152 2.4371 -0.5470 0.485 -0.865 -0.132 54 51 46 0 0
0.6199 2.4395 -0.5468 0.427 -0.903 -0.044 38 35 30 0 0
0.6456 2.4797 -0.5523 0.434 -0.770 -0.467 43 36 28 0 0
0.6505 2.4842 -0.5526 -0.432 -0.719 -0.544 39 30 24 0 0
0.8339 2.4789 -0.5242 -0.491 -0.386 0.781 89 67 47 0 0
0.8401 2.4899 -0.5258 -0.788 -0.480 0.385 96 80 65 0 0
0.8450 2.4929 -0.5258 -0.501 -0.548 0.670 117 104 95 0 0
0.8788 2.4778 -0.5173 -0.443 -0.436 0.784 118 105 90 0 0
0.9027 2.4605 -0.5098 0.281 -0.926 -0.250 82 60 39 0 0
0.9512 2.4603 -0.5026 -0.292 -0.893 -0.343 79 56 39 0 0
0.9553 2.4588 -0.5016 -0.247 -0.860 -0.447 75 54 37 0 0
0.9591 2.4557 -0.5003 -0.100 -0.848 -0.520 75 54 37 0 0
0.9642 2.4596 -0.5005 0.266 -0.916 -0.300 77 56 39 0 0
0.9685 2.4589 -0.4997 0.299 -0.880 -0.369 83 60 41 0 0
0.9731 2.4603 -0.4993 0.299 -0.880 -0.369 88 63 44 0 0
0.9780 2.4630 -0.4992 0.453 -0.878 -0.152 88 63 46 0 0
0.9831 2.4666 -0.4993 0.644 -0.765 0.009 75 55 40 0 0
0.9885 2.4710 -0.4995 0.644 -0.765 0.009 67 50 34 0 0
0.9926 2.4698 -0.4986 0.402 -0.911 -0.097 67 50 34 0 0
0.9986 2.4776 -0.4995 0.346 -0.936 0.062 68 51 35 0 0
1.0350 2.4646 -0.4911 0.048 -0.855 -0.517 69 52 36 0 0
1.0465 2.4578 -0.4879 -0.117 -0.945 -0.307 69 52 36 0 0
1.0509 2.4584 -0.4873 -0.325 -0.885 -0.334 68 52 36 0 0
1.0552 2.4581 -0.4866 -0.385 -0.893 -0.232 64 48 34 0 0
1.0688 2.4609 -0.4853 -0.588 -0.788 -0.183 55 43 31 0 0
1.1436 2.4845 -0.4796 -0.235 -0.886 -0.400 104 74 48 0 0
1.1554 2.5123 -0.4843 0.396 -0.858 0.328 105 75 49 0 0
1.2656 2.3807 -0.4377 -0.502 -0.463 -0.731 104 76 52 0 0
1.2671 2.3613 -0.4330 -0.051 -0.946 -0.319 101 74 50 0 0
1.2716 2.3629 -0.4327 0.072 -0.974 -0.215 102 75 52 0 0
1.2759 2.3639 -0.4323 0.367 -0.891 -0.268 101 75 52 0 0
1.2802 2.3650 -0.4319 0.250 -0.866 -0.433 100 74 51 0 0
1.2852 2.3679 -0.4318 0.522 -0.788 -0.327 100 73 51 0 0
-1.3027 2.2058 -0.7829 0.434 -0.729 -0.529 114 89 65 0 0
-1.3023 2.2123 -0.7844 -0.025 -0.860 -0.510 112 88 63 0 0
-1.2985 2.2147 -0.7844 -0.286 -0.839 -0.464 112 86 64 0 0
-1.2888 2.2100 -0.7819 -0.286 -0.839 -0.464 87 63 49 0 0
-1.1938 2.3799 -0.8072 0.513 -0.474 -0.716 56 46 34 0 0
-1.1920 2.3943 -0.8102 0.139 -0.786 -0.603 52 42 31 0 0
-1.0290 2.4589 -0.8010 0.813 -0.435 0.387 45 38 30 0 0
-1.0256 2.4632 -0.8015 0.906 -0.309 0.291 45 38 30 0 0
-0.8701 2.4427 -0.7737 0.381 -0.278 0.882 140 122 104 0 0
-0.8694 2.4624 -0.7781 0.297 -0.258 0.920 152 134 118 0 0
-0.8700 2.4741 -0.7809 0.220 -0.282 0.934 159 142 127 0 0
-0.8654 2.4764 -0.7808 0.013 -0.353 0.935 168 151 135 0 0
-0.8643 2.4852 -0.7826 -0.196 -0.532 0.824 173 157 144 0 0
-0.8537 2.4769 -0.7791 -0.138 -0.314 0.939 178 163 148 0 0
-0.8501 2.4811 -0.7796 -0.184 -0.318 0.930 179 166 149 0 0
-0.6208 2.3344 -0.7115 -0.215 -0.897 0.385 254 254 254 0 0
-0.6152 2.3340 -0.7106 -0.344 -0.924 -0.167 254 254 254 0 0
-0.5230 2.3210 -0.6939 0.343 -0.047 0.938 107 99 95 0 0
-0.5021 2.4923 -0.7305 0.631 -0.126 0.765 57 52 51 0 0
-0.3307 2.3708 -0.6769 0.868 -0.410 -0.279 56 50 50 0 0
-0.2939 2.4512 -0.6900 0.496 -0.744 -0.448 60 54 54 0 0
-0.2894 2.4542 -0.6901 0.496 -0.744 -0.448 65 58 58 0 0
-0.2721 2.5204 -0.7029 0.444 -0.654 0.612 94 76 54 0 0
-0.2673 2.5228 -0.7027 0.565 -0.696 0.444 92 74 54 0 0
-0.2507 2.4861 -0.6917 0.785 -0.341 -0.517 90 72 53 0 0
-0.1507 2.1862 -0.6073 0.998 0.049 0.049 89 72 52 0 0
-0.1508 2.2025 -0.6111 0.998 0.054 0.040 89 70 50 0 0
-0.0663 2.2062 -0.5994 0.287 -0.263 -0.921 84 69 50 0 0
-0.0637 2.2144 -0.6009 0.287 -0.263 -0.921 81 66 47 0 0
-0.0605 2.2207 -0.6019 0.232 -0.284 -0.930 80 65 46 0 0
-0.0560 2.2216 -0.6015 0.341 -0.272 -0.900 80 64 45 0 0
-0.0534 2.2302 -0.6030 0.341 -0.272 -0.900 79 62 44 0 0
-0.0410 2.1989 -0.5939 0.326 -0.367 -0.871 76 60 43 0 0
-0.0410 2.2183 -0.5985 0.451 -0.311 -0.837 75 59 42 0 0
-0.0382 2.2262 -0.5999 0.451 -0.311 -0.837 76 60 43 0 0
0.0397 2.2360 -0.5906 0.975 -0.001 0.222 60 52 46 0 0
0.0406 2.2546 -0.5947 0.974 0.011 0.227 58 52 46 0 0
0.0756 2.2950 -0.5989 0.415 -0.271 -0.868 63 60 57 0 0
0.0783 2.3063 -0.6012 0.415 -0.271 -0.868 66 63 61 0 0
0.0810 2.3181 -0.6035 0.369 -0.289 -0.883 69 66 62 0 0
0.1090 2.2666 -0.5874 0.468 -0.082 0.880 76 73 70 0 0
0.1171 2.2741 -0.5879 0.231 -0.391 0.891 93 91 89 0 0
0.1216 2.2752 -0.5875 0.856 -0.129 0.500 82 80 79 0 0
0.1245 2.2863 -0.5896 0.856 -0.129 0.500 84 82 81 0 0
0.1820 2.2774 -0.5790 0.523 -0.299 -0.798 64 61 58 0 0
0.1851 2.2886 -0.5812 0.523 -0.299 -0.798 64 61 56 0 0
0.2710 2.3111 -0.5736 0.833 -0.495 -0.249 35 34 32 0 0
0.2748 2.3204 -0.5752 -0.013 -0.996 0.086 35 34 32 0 0
0.2794 2.3204 -0.5745 -0.013 -0.996 0.086 36 35 33 0 0
0.2840 2.3212 -0.5740 0.383 -0.924 -0.000 34 33 29 0 0
0.2885 2.3230 -0.5738 0.383 -0.924 -0.000 35 34 30 0 0
0.3265 2.3103 -0.5652 0.967 -0.215 0.139 33 32 28 0 0
0.3303 2.3224 -0.5675 0.956 -0.292 0.038 34 33 29 0 0
0.3340 2.3355 -0.5699 0.961 -0.276 0.023 35 32 28 0 0
0.3385 2.3379 -0.5698 0.893 -0.373 -0.251 35 32 28 0 0
0.3477 2.3387 -0.5686 0.182 -0.981 0.061 35 31 28 0 0
0.3631 2.3119 -0.5601 0.605 -0.084 0.791 34 32 28 0 0
0.3671 2.3227 -0.5621 0.605 -0.084 0.791 33 31 28 0 0
0.3711 2.3336 -0.5640 0.605 -0.084 0.791 33 30 27 0 0
0.3753 2.3413 -0.5652 0.597 -0.081 0.798 34 31 27 0 0
0.4896 2.3253 -0.5445 0.725 -0.141 0.674 33 29 26 0 0
0.4941 2.3386 -0.5469 0.713 -0.149 0.685 32 29 25 0 0
0.4987 2.3531 -0.5496 0.658 -0.166 0.735 32 29 24 0 0
0.5033 2.3636 -0.5513 0.658 -0.166 0.735 32 29 24 0 0
0.5885 2.4513 -0.5590 -0.277 -0.932 -0.235 31 28 23 0 0
0.6464 2.4852 -0.5583 0.176 -0.859 -0.481 41 35 28 0 0
0.6514 2.4906 -0.5588 -0.749 -0.578 -0.323 38 32 26 0 0
0.8403 2.4885 -0.5303 -0.848 -0.529 0.029 104 88 76 0 0
0.9033 2.4616 -0.5147 0.337 -0.831 -0.442 84 62 41 0 0
0.9082 2.4644 -0.5146 0.351 -0.820 -0.453 83 61 40 0 0
0.9128 2.4655 -0.5141 0.146 -0.842 -0.520 84 61 40 0 0
0.9175 2.4671 -0.5138 -0.140 -0.885 -0.443 88 63 43 0 0
0.9215 2.4645 -0.5126 0.676 -0.737 -0.005 87 62 42 0 0
0.9354 2.4677 -0.5113 -0.133 -0.971 -0.197 92 67 45 0 0
0.9396 2.4668 -0.5105 -0.181 -0.950 -0.255 93 68 46 0 0
0.9519 2.4618 -0.5075 -0.352 -0.899 -0.261 79 57 40 0 0
0.9560 2.4603 -0.5065 -0.292 -0.893 -0.343 77 55 38 0 0
0.9601 2.4588 -0.5056 -0.100 -0.848 -0.520 78 56 39 0 0
0.9650 2.4614 -0.5055 0.266 -0.916 -0.300 85 61 43 0 0
0.9695 2.4622 -0.5050 0.202 -0.949 -0.242 92 67 45 0 0
0.9740 2.4629 -0.5044 0.241 -0.944 -0.226 92 66 45 0 0
0.9787 2.4641 -0.5040 0.453 -0.878 -0.152 91 68 46 0 0
0.9837 2.4674 -0.5041 0.667 -0.744 -0.043 75 55 37 0 0
0.9890 2.4716 -0.5042 0.636 -0.771 -0.023 67 50 34 0 0
0.9931 2.4705 -0.5034 0.402 -0.911 -0.097 66 49 33 0 0
0.9989 2.4771 -0.5041 0.385 -0.923 0.029 66 49 32 0 0
1.0362 2.4678 -0.4964 0.048 -0.855 -0.517 68 51 36 0 0
1.0476 2.4609 -0.4931 -0.163 -0.924 -0.346 68 51 35 0 0
1.0517 2.4600 -0.4922 -0.325 -0.885 -0.334 65 48 33 0 0
1.0694 2.4621 -0.4901 -0.567 -0.793 -0.223 54 42 30 0 0
1.1279 2.5053 -0.4914 -0.936 -0.325 -0.139 41 34 29 0 0
1.1553 2.5106 -0.4886 0.396 -0.858 0.328 104 74 47 0 0
1.2425 2.3457 -0.4374 -0.381 -0.538 -0.752 104 76 52 0 0
1.2455 2.3431 -0.4363 -0.460 -0.515 -0.723 104 76 52 0 0
1.2636 2.3616 -0.4379 0.262 -0.963 0.067 102 74 50 0 0
1.2675 2.3616 -0.4374 0.015 -1.000 -0.005 103 74 50 0 0
1.2712 2.3607 -0.4366 0.561 -0.802 -0.204 102 74 50 0 0
1.2819 2.3691 -0.4369 0.429 -0.800 -0.419 101 75 52 0 0
1.2868 2.3716 -0.4368 0.429 -0.800 -0.419 101 75 52 0 0
1.2919 2.3750 -0.4368 0.506 -0.778 -0.372 99 73 50 0 0
-1.3048 2.2090 -0.7891 0.434 -0.729 -0.529 113 89 65 0 0
-1.3048 2.2161 -0.7908 -0.025 -0.860 -0.510 115 91 67 0 0
-1.3020 2.2198 -0.7912 -0.328 -0.846 -0.421 114 88 65 0 0
-1.2913 2.2139 -0.7882 -0.377 -0.823 -0.426 95 70 54 0 0
-1.1708 2.3489 -0.8019 0.710 -0.479 -0.516 58 46 34 0 0
-1.1850 2.3770 -0.8106 0.891 -0.448 -0.080 55 44 32 0 0
-1.2002 2.4067 -0.8198 -0.300 -0.722 -0.624 55 45 34 0 0
-1.0284 2.4883 -0.8133 0.002 -0.485 0.874 45 40 31 0 0
-1.0239 2.4909 -0.8133 0.265 -0.418 0.869 46 40 33 0 0
-1.0218 2.4974 -0.8145 0.309 -0.298 0.903 46 40 33 0 0
-0.8568 2.4515 -0.7791 0.143 -0.111 0.983 158 138 120 0 0
-0.8505 2.4721 -0.7830 -0.113 -0.285 0.952 178 161 142 0 0
-0.8484 2.4791 -0.7843 -0.237 -0.374 0.896 180 165 145 0 0
-0.7813 2.3879 -0.7530 -0.784 -0.386 0.486 183 169 153 0 0
-0.6474 2.2487 -0.7005 -0.067 -0.946 0.318 254 254 254 0 0
-0.6099 2.3470 -0.7179 0.376 -0.516 -0.770 254 254 254 0 0
-0.6019 2.3416 -0.7155 0.402 -0.635 -0.659 254 254 254 0 0
-0.5237 2.3119 -0.6969 0.034 -0.402 -0.915 236 235 231 0 0
-0.5090 2.3391 -0.7010 0.304 -0.075 0.950 89 78 82 0 0
-0.4252 2.2903 -0.6771 -0.349 -0.927 0.134 60 55 52 0 0
-0.4186 2.2869 -0.6753 -0.368 -0.925 -0.098 60 55 52 0 0
-0.4144 2.3023 -0.6783 -0.036 -0.501 0.865 58 52 52 0 0
-0.4078 2.3251 -0.6827 0.586 -0.265 0.766 58 52 52 0 0
-0.3349 2.3692 -0.6821 0.825 -0.477 -0.304 50 44 44 0 0
-0.3313 2.3740 -0.6827 0.799 -0.512 -0.314 51 45 45 0 0
-0.3281 2.3799 -0.6836 0.777 -0.530 -0.339 53 47 47 0 0
-0.3106 2.4062 -0.6872 0.997 -0.033 -0.068 55 49 49 0 0
-0.3095 2.4189 -0.6900 0.994 -0.079 -0.080 55 49 49 0 0
-0.2754 2.5151 -0.7074 0.074 -0.828 0.557 91 74 55 0 0
-0.2719 2.5215 -0.7084 0.576 -0.706 0.412 94 76 54 0 0
-0.2674 2.5248 -0.7085 0.765 -0.612 0.204 94 76 54 0 0
-0.0404 2.1983 -0.5983 0.806 -0.303 -0.508 76 60 44 0 0
-0.0380 2.2078 -0.6001 0.806 -0.303 -0.508 76 60 44 0 0
0.0413 2.2302 -0.5936 0.998 -0.063 -0.024 75 60 50 0 0
0.0424 2.2482 -0.5976 0.998 -0.063 -0.024 75 63 53 0 0
0.0434 2.2665 -0.6018 0.998 -0.063 -0.024 71 61 51 0 0
0.0442 2.2865 -0.6063 0.999 -0.033 -0.041 60 52 41 0 0
0.0447 2.3083 -0.6113 0.999 -0.033 -0.041 60 51 42 0 0
0.0856 2.3220 -0.6085 0.247 -0.253 -0.935 62 54 48 0 0
0.0887 2.3317 -0.6103 0.247 -0.253 -0.935 59 52 47 0 0
0.1184 2.2687 -0.5911 0.294 -0.323 0.900 56 50 45 0 0
0.1228 2.2709 -0.5910 0.777 -0.100 0.621 56 50 45 0 0
0.1258 2.2811 -0.5929 0.773 -0.074 0.630 57 51 46 0 0
0.1287 2.2925 -0.5951 0.773 -0.074 0.630 57 52 47 0 0
0.1489 2.2529 -0.5829 0.477 -0.303 -0.825 60 54 50 0 0
0.1521 2.2621 -0.5845 0.516 -0.280 -0.809 63 58 54 0 0
0.1829 2.3089 -0.5909 0.355 -0.316 -0.880 90 87 81 0 0
0.1866 2.3165 -0.5921 0.355 -0.316 -0.880 93 90 85 0 0
0.1899 2.3271 -0.5941 0.396 -0.315 -0.863 98 94 89 0 0
0.1998 2.2868 -0.5832 0.261 -0.541 0.800 99 96 92 0 0
0.2454 2.3377 -0.5883 0.933 -0.181 0.311 81 81 79 0 0
0.2627 2.3054 -0.5782 0.858 -0.344 -0.382 73 73 71 0 0
0.2643 2.3369 -0.5853 0.914 -0.096 0.395 72 71 69 0 0
0.2674 2.3536 -0.5888 0.887 -0.070 0.456 68 67 65 0 0
0.3567 2.2716 -0.5563 0.936 -0.317 -0.153 35 33 30 0 0
0.3603 2.2878 -0.5596 0.953 -0.303 -0.020 37 34 31 0 0
0.3641 2.3010 -0.5621 0.951 -0.309 0.017 35 32 29 0 0
0.3689 2.2957 -0.5601 0.437 -0.258 0.862 34 30 28 0 0
0.3731 2.3019 -0.5609 0.456 -0.239 0.857 36 33 30 0 0
0.3775 2.3048 -0.5610 0.680 -0.145 0.718 36 32 29 0 0
0.3816 2.3150 -0.5628 0.680 -0.145 0.718 37 33 31 0 0
0.5793 2.4454 -0.5638 0.422 -0.905 0.060 31 28 23 0 0
0.5843 2.4525 -0.5647 -0.280 -0.953 -0.112 32 29 22 0 0
0.5889 2.4516 -0.5638 -0.257 -0.939 -0.228 31 28 21 0 0
0.5935 2.4496 -0.5627 0.551 -0.784 -0.285 31 27 21 0 0
0.6471 2.4903 -0.5642 -0.264 -0.918 -0.296 38 33 27 0 0
0.8345 2.4773 -0.5333 -0.711 -0.656 -0.253 99 78 57 0 0
0.8410 2.4905 -0.5354 -0.647 -0.673 -0.357 94 78 60 0 0
0.8483 2.4789 -0.5316 -0.423 -0.733 0.532 100 87 78 0 0
0.8530 2.4801 -0.5312 -0.343 -0.655 0.673 116 105 99 0 0
0.9035 2.4609 -0.5191 -0.029 -0.993 -0.112 83 61 40 0 0
0.9084 2.4636 -0.5191 0.269 -0.889 -0.372 82 60 39 0 0
0.9138 2.4690 -0.5195 0.146 -0.842 -0.520 83 61 40 0 0
0.9225 2.4679 -0.5180 0.434 -0.805 -0.404 88 63 41 0 0
0.9273 2.4699 -0.5177 0.676 -0.737 -0.005 92 67 45 0 0
0.9358 2.4681 -0.5160 -0.251 -0.939 -0.233 89 64 43 0 0
0.9528 2.4646 -0.5127 0.289 -0.876 -0.387 81 57 39 0 0
0.9573 2.4651 -0.5121 0.155 -0.849 -0.505 82 57 40 0 0
0.9613 2.4631 -0.5111 0.037 -0.788 -0.615 86 60 42 0 0
0.9660 2.4647 -0.5107 0.030 -0.814 -0.580 92 65 45 0 0
0.9710 2.4675 -0.5107 -0.154 -0.875 -0.459 95 68 47 0 0
0.9750 2.4656 -0.5096 -0.025 -0.881 -0.473 94 67 46 0 0
0.9793 2.4656 -0.5090 -0.094 -0.871 -0.482 89 64 43 0 0
0.9843 2.4682 -0.5088 0.676 -0.733 -0.074 76 55 38 0 0
0.9895 2.4721 -0.5090 0.636 -0.771 -0.023 67 49 33 0 0
0.9938 2.4720 -0.5083 0.446 -0.879 -0.167 65 48 32 0 0
0.9993 2.4773 -0.5087 0.425 -0.904 -0.041 65 48 32 0 0
1.0358 2.4646 -0.5003 0.501 -0.861 -0.083 66 48 33 0 0
1.0442 2.4634 -0.4988 -0.166 -0.840 -0.516 68 51 35 0 0
1.0483 2.4624 -0.4979 0.066 -0.871 -0.487 68 51 35 0 0
1.0526 2.4623 -0.4973 0.066 -0.871 -0.487 65 48 34 0 0
1.0705 2.4651 -0.4953 -0.418 -0.833 -0.363 54 42 30 0 0
1.1260 2.5135 -0.4983 -0.936 -0.322 -0.142 42 35 28 0 0
1.2477 2.3486 -0.4416 -0.460 -0.515 -0.723 104 76 52 0 0
1.2731 2.3655 -0.4418 -0.011 -0.991 -0.135 103 75 51 0 0
1.2774 2.3665 -0.4414 0.516 -0.822 -0.242 102 75 52 0 0
1.2825 2.3698 -0.4414 0.583 -0.792 -0.182 101 75 52 0 0
1.2878 2.3735 -0.4415 0.493 -0.821 -0.289 99 73 50 0 0
1.2934 2.3783 -0.4418 0.506 -0.778 -0.372 101 75 52 0 0
1.2985 2.3816 -0.4418 0.506 -0.778 -0.372 100 74 51 0 0
-1.3054 2.2106 -0.7947 0.552 -0.634 -0.542 115 91 67 0 0
-1.3050 2.2172 -0.7962 0.167 -0.838 -0.520 116 92 68 0 0
-1.3051 2.2243 -0.7979 -0.328 -0.846 -0.421 117 91 68 0 0
-1.1746 2.3467 -0.8073 0.628 -0.532 -0.569 60 48 36 0 0
-1.1716 2.3508 -0.8078 0.628 -0.532 -0.569 60 47 37 0 0
-1.1834 2.3756 -0.8154 0.941 -0.332 -0.073 59 47 35 0 0
-1.0172 2.4712 -0.8131 0.206 -0.581 0.787 46 40 34 0 0
-1.0166 2.4802 -0.8152 0.682 -0.377 0.626 47 40 34 0 0
-1.0006 2.5038 -0.8184 0.515 -0.287 -0.808 49 41 35 0 0
-0.8448 2.3401 -0.7564 -0.136 -0.737 -0.661 97 75 64 0 0
-0.8374 2.3371 -0.7546 -0.136 -0.737 -0.661 108 85 64 0 0
-0.8346 2.3422 -0.7554 0.162 -0.846 -0.509 115 90 63 0 0
-0.8365 2.4693 -0.7857 -0.201 -0.279 0.939 182 164 145 0 0
-0.8318 2.4715 -0.7855 -0.151 -0.203 0.967 185 168 150 0 0
-0.6830 2.2466 -0.7102 -0.844 -0.396 0.361 240 234 234 0 0
-0.6568 2.2474 -0.7065 -0.124 -0.984 0.126 254 254 254 0 0
-0.6465 2.2481 -0.7051 -0.027 -0.938 0.345 254 254 254 0 0
-0.6348 2.2458 -0.7028 -0.413 -0.839 0.354 254 254 254 0 0
-0.6277 2.2423 -0.7009 -0.484 -0.799 0.357 254 254 254 0 0
-0.5957 2.3411 -0.7195 -0.495 -0.809 0.319 254 254 254 0 0
-0.5001 2.3078 -0.6973 -0.126 -0.491 -0.862 225 222 222 0 0
-0.4240 2.2887 -0.6815 -0.279 -0.927 0.249 71 65 65 0 0
-0.4181 2.2869 -0.6802 0.040 -0.960 0.276 67 61 61 0 0
-0.4150 2.2921 -0.6809 -0.235 -0.889 0.393 62 56 56 0 0
-0.4019 2.3385 -0.6899 0.959 -0.274 0.076 58 52 52 0 0
-0.2934 2.4531 -0.7008 0.623 -0.730 -0.281 58 52 52 0 0
-0.2897 2.4583 -0.7015 0.371 -0.856 -0.360 62 56 56 0 0
-0.2769 2.5217 -0.7145 -0.207 -0.934 0.291 92 75 57 0 0
-0.2714 2.5218 -0.7137 0.680 -0.704 0.203 96 77 55 0 0
-0.2532 2.4981 -0.7054 0.818 -0.375 -0.437 95 76 54 0 0
-0.1515 2.2246 -0.6256 0.998 0.048 0.037 91 70 50 0 0
0.0419 2.2298 -0.5980 0.999 -0.033 0.007 75 60 50 0 0
0.0426 2.2495 -0.6025 1.000 -0.027 -0.010 67 56 48 0 0
0.0432 2.2697 -0.6072 1.000 0.010 0.005 45 35 26 0 0
0.0440 2.2902 -0.6119 0.997 -0.032 -0.064 45 37 28 0 0
0.0444 2.3127 -0.6172 0.997 -0.032 -0.064 45 38 30 0 0
0.1211 2.2553 -0.5922 0.672 -0.139 0.728 58 50 39 0 0
0.1241 2.2652 -0.5941 0.824 -0.112 0.556 58 50 40 0 0
0.1682 2.3160 -0.5995 0.387 -0.315 -0.866 55 47 38 0 0
0.2459 2.3371 -0.5929 0.976 -0.212 0.051 90 87 86 0 0
0.2588 2.3029 -0.5828 0.810 -0.346 -0.473 100 99 97 0 0
0.2623 2.3140 -0.5849 0.810 -0.346 -0.473 101 100 98 0 0
0.2654 2.3301 -0.5883 0.974 -0.166 0.153 109 108 106 0 0
0.2687 2.3449 -0.5913 0.878 -0.044 0.477 117 115 113 0 0
0.2922 2.3447 -0.5877 0.467 -0.040 0.883 130 129 127 0 0
0.3407 2.3174 -0.5740 -0.223 -0.315 0.922 124 124 123 0 0
0.3449 2.3244 -0.5751 -0.236 -0.262 0.936 118 117 117 0 0
0.3606 2.2896 -0.5645 0.940 -0.337 -0.060 99 100 100 0 0
0.3645 2.3012 -0.5667 0.945 -0.328 0.010 94 95 95 0 0
0.3698 2.2876 -0.5627 0.483 -0.477 0.734 87 87 88 0 0
0.3741 2.2919 -0.5630 0.658 -0.397 0.640 81 82 83 0 0
0.5047 2.4324 -0.5767 0.760 -0.285 -0.584 32 29 24 0 0
0.5193 2.4708 -0.5836 0.538 -0.385 -0.750 32 29 22 0 0
0.5554 2.4114 -0.5642 0.844 -0.434 -0.313 33 30 23 0 0
0.5604 2.4223 -0.5660 0.844 -0.434 -0.313 32 29 22 0 0
0.5653 2.4310 -0.5673 0.876 -0.466 -0.124 31 28 22 0 0
0.5702 2.4389 -0.5685 0.861 -0.500 -0.093 32 29 24 0 0
0.5751 2.4457 -0.5693 0.603 -0.797 0.026 33 30 25 0 0
0.5799 2.4499 -0.5696 0.646 -0.752 0.131 33 30 25 0 0
0.5848 2.4539 -0.5698 0.631 -0.746 0.213 33 29 24 0 0
0.5896 2.4582 -0.5701 0.614 -0.597 0.516 34 28 23 0 0
0.6142 2.4828 -0.5722 0.643 -0.513 0.569 61 58 53 0 0
0.6429 2.4906 -0.5698 0.245 -0.951 -0.191 64 54 41 0 0
0.6477 2.4918 -0.5694 -0.299 -0.909 -0.290 38 31 28 0 0
0.9137 2.4663 -0.5236 0.495 -0.681 -0.539 84 61 40 0 0
0.9191 2.4712 -0.5240 -0.190 -0.889 -0.416 89 64 42 0 0
0.9232 2.4698 -0.5230 0.329 -0.679 -0.656 87 62 41 0 0
0.9278 2.4705 -0.5225 0.624 -0.780 -0.053 89 64 43 0 0
0.9442 2.4639 -0.5185 0.208 -0.977 0.036 85 60 40 0 0
0.9488 2.4644 -0.5179 -0.376 -0.919 0.119 85 59 39 0 0
0.9541 2.4692 -0.5183 0.326 -0.857 -0.398 84 60 39 0 0
0.9578 2.4658 -0.5169 0.295 -0.795 -0.530 87 61 42 0 0
0.9625 2.4670 -0.5165 0.199 -0.794 -0.575 93 65 45 0 0
0.9672 2.4686 -0.5162 0.030 -0.814 -0.580 94 67 46 0 0
0.9719 2.4701 -0.5158 -0.280 -0.853 -0.440 95 68 47 0 0
0.9760 2.4687 -0.5149 -0.028 -0.843 -0.538 92 66 44 0 0
0.9801 2.4672 -0.5139 0.328 -0.881 -0.341 89 64 43 0 0
0.9849 2.4692 -0.5137 0.388 -0.887 -0.248 74 54 37 0 0
0.9897 2.4712 -0.5134 0.388 -0.887 -0.248 68 49 34 0 0
0.9945 2.4733 -0.5132 0.388 -0.887 -0.248 66 48 32 0 0
0.9999 2.4780 -0.5135 0.330 -0.907 -0.262 66 49 33 0 0
1.0368 2.4674 -0.5055 -0.030 -0.969 -0.243 65 47 34 0 0
1.0411 2.4671 -0.5048 -0.030 -0.969 -0.243 67 49 34 0 0
1.0449 2.4647 -0.5037 -0.038 -0.879 -0.474 68 51 35 0 0
1.0491 2.4641 -0.5029 -0.038 -0.879 -0.474 68 51 35 0 0
1.0533 2.4635 -0.5021 -0.038 -0.879 -0.474 65 48 33 0 0
1.0650 2.4585 -0.4992 -0.564 -0.713 -0.416 54 42 30 0 0
1.1265 2.5140 -0.5031 -0.940 -0.322 -0.116 41 35 31 0 0
1.1381 2.4758 -0.4924 -0.933 -0.332 -0.141 105 75 50 0 0
1.1495 2.5022 -0.4969 -0.317 -0.904 -0.288 105 75 48 0 0
1.2573 2.3410 -0.4427 -0.329 -0.522 -0.787 105 76 52 0 0
1.2630 2.3347 -0.4404 -0.412 -0.448 -0.794 103 75 51 0 0
1.2791 2.3704 -0.4464 0.529 -0.729 -0.434 101 73 50 0 0
1.2844 2.3742 -0.4465 0.617 -0.706 -0.347 101 75 52 0 0
1.2911 2.3822 -0.4474 0.207 -0.692 -0.691 100 74 51 0 0
-1.3016 2.2209 -0.8017 0.066 -0.884 -0.463 114 89 66 0 0
-1.2978 2.2234 -0.8017 -0.328 -0.846 -0.421 114 88 66 0 0
-1.1793 2.3458 -0.8131 0.754 -0.345 -0.559 64 51 38 0 0
-1.1768 2.3506 -0.8139 0.620 -0.476 -0.624 62 50 38 0 0
-1.1739 2.3549 -0.8144 0.468 -0.589 -0.659 61 49 37 0 0
-1.1847 2.3784 -0.8217 0.410 -0.734 -0.542 59 47 35 0 0
-1.0014 2.4566 -0.8128 0.557 -0.138 -0.819 63 55 51 0 0
-1.0034 2.4695 -0.8162 0.549 -0.136 -0.825 51 43 39 0 0
-0.8996 2.4156 -0.7878 -0.214 -0.487 -0.847 52 43 37 0 0
-0.8401 2.4238 -0.7808 0.040 -0.133 0.990 149 125 99 0 0
-0.8361 2.4697 -0.7912 -0.427 -0.544 0.722 180 161 140 0 0
-0.8202 2.4513 -0.7844 -0.138 -0.186 0.973 183 165 146 0 0
-0.7531 2.3482 -0.7498 -0.827 -0.439 0.351 185 169 151 0 0
-0.6976 2.2651 -0.7217 -0.851 -0.440 0.286 208 198 193 0 0
-0.6624 2.2490 -0.7126 0.174 -0.901 0.397 250 246 246 0 0
-0.6555 2.2460 -0.7109 -0.129 -0.983 0.133 254 254 254 0 0
-0.6330 2.2434 -0.7069 -0.313 -0.942 0.117 254 254 254 0 0
-0.6271 2.2422 -0.7057 -0.215 -0.951 0.223 254 254 254 0 0
-0.4874 2.2920 -0.6967 -0.449 -0.739 -0.502 248 246 247 0 0
-0.4828 2.4081 -0.7236 0.702 -0.043 0.711 117 113 112 0 0
-0.4871 2.4320 -0.7299 0.786 -0.613 -0.075 100 95 96 0 0
-0.4229 2.2874 -0.6859 -0.247 -0.941 0.231 94 88 90 0 0
-0.4170 2.2856 -0.6846 0.102 -0.995 -0.014 86 80 80 0 0
-0.4137 2.2902 -0.6852 -0.164 -0.879 0.448 70 62 61 0 0
-0.4032 2.3028 -0.6866 0.205 -0.235 0.950 62 54 55 0 0
-0.4012 2.3111 -0.6883 0.496 -0.158 0.854 61 54 54 0 0
-0.4020 2.3401 -0.6953 0.985 -0.081 -0.153 60 53 52 0 0
-0.3967 2.3818 -0.7045 0.988 0.088 0.123 62 53 54 0 0
-0.3728 2.4644 -0.7206 0.517 -0.215 -0.829 119 114 114 0 0
-0.3718 2.4770 -0.7234 0.486 -0.239 -0.841 100 95 94 0 0
-0.3333 2.3829 -0.6952 0.806 -0.097 0.584 86 81 81 0 0
-0.2957 2.4452 -0.7044 0.042 -0.785 -0.619 56 50 50 0 0
-0.2935 2.4552 -0.7065 0.623 -0.730 -0.281 58 52 52 0 0
-0.2899 2.4607 -0.7072 0.371 -0.856 -0.360 61 55 56 0 0
-0.2846 2.4955 -0.7147 0.896 -0.444 0.036 71 65 62 0 0
-0.2815 2.5029 -0.7160 0.864 -0.503 0.018 76 68 66 0 0
-0.2807 2.5179 -0.7195 0.488 -0.872 -0.026 81 69 64 0 0
-0.2760 2.5205 -0.7194 0.488 -0.872 -0.026 93 74 57 0 0
-0.2707 2.5212 -0.7188 0.572 -0.820 0.022 96 75 54 0 0
-0.2655 2.5224 -0.7183 0.580 -0.800 -0.153 97 76 55 0 0
-0.1496 2.1871 -0.6211 0.996 0.054 0.067 97 76 55 0 0
-0.1503 2.2056 -0.6256 0.996 0.054 0.067 96 76 53 0 0
-0.1510 2.2245 -0.6302 0.996 0.054 0.067 95 75 51 0 0
0.0447 2.2411 -0.6048 0.999 0.040 0.015 55 45 38 0 0
0.0437 2.2699 -0.6119 0.999 0.034 0.026 61 52 45 0 0
0.0441 2.3164 -0.6229 0.997 -0.032 -0.064 59 53 47 0 0
0.1695 2.3447 -0.6108 0.415 -0.289 -0.863 62 53 43 0 0
0.1727 2.3559 -0.6130 0.415 -0.289 -0.863 60 51 41 0 0
0.1755 2.3712 -0.6162 0.355 -0.316 -0.880 60 51 41 0 0
0.1793 2.3792 -0.6176 0.355 -0.316 -0.880 59 50 41 0 0
0.1984 2.3047 -0.5970 -0.058 -0.867 -0.495 70 63 56 0 0
0.2025 2.3094 -0.5975 0.182 -0.872 -0.453 64 58 53 0 0
0.2397 2.3119 -0.5925 0.913 -0.213 -0.348 61 57 55 0 0
0.2435 2.3196 -0.5938 0.951 -0.163 0.262 62 58 56 0 0
0.2467 2.3337 -0.5966 0.951 -0.163 0.262 61 57 55 0 0
0.2591 2.3045 -0.5878 0.784 -0.458 -0.420 58 54 52 0 0
0.2630 2.3123 -0.5891 0.784 -0.458 -0.420 54 50 48 0 0
0.2654 2.3352 -0.5942 0.958 -0.213 0.191 54 50 48 0 0
0.2688 2.3485 -0.5968 0.952 -0.202 0.229 53 49 47 0 0
0.2799 2.3308 -0.5910 -0.073 -0.834 -0.547 55 50 49 0 0
0.2838 2.3392 -0.5924 -0.048 -0.720 -0.692 55 51 50 0 0
0.3165 2.3386 -0.5874 -0.223 -0.611 -0.760 60 56 55 0 0
0.3215 2.3345 -0.5856 0.514 -0.345 -0.785 67 63 61 0 0
0.3309 2.3323 -0.5837 0.749 -0.337 -0.571 76 74 72 0 0
0.3348 2.3440 -0.5859 0.803 -0.330 -0.496 85 83 83 0 0
0.3386 2.3571 -0.5885 0.803 -0.330 -0.496 90 89 90 0 0
0.3619 2.2733 -0.5650 0.920 -0.364 0.148 104 105 105 0 0
0.3719 2.2537 -0.5588 0.816 -0.385 -0.431 114 114 117 0 0
0.3759 2.2642 -0.5607 0.816 -0.385 -0.431 121 123 126 0 0
0.5998 2.4658 -0.5752 0.548 -0.382 0.744 80 76 71 0 0
0.6047 2.4704 -0.5756 0.469 -0.334 0.817 83 81 76 0 0
0.6145 2.4795 -0.5763 0.279 -0.301 0.912 99 96 91 0 0
0.6194 2.4839 -0.5766 0.272 -0.367 0.890 70 66 60 0 0
0.6434 2.4917 -0.5749 0.245 -0.951 -0.191 63 52 42 0 0
0.6482 2.4927 -0.5744 -0.212 -0.941 -0.265 38 31 26 0 0
0.6532 2.4973 -0.5747 -0.820 -0.515 -0.249 40 33 28 0 0
0.8920 2.4402 -0.5254 -0.670 -0.309 0.676 83 61 39 0 0
0.9144 2.4677 -0.5286 0.466 -0.847 -0.257 82 60 39 0 0
0.9194 2.4707 -0.5285 -0.019 -0.966 -0.256 91 65 45 0 0
0.9246 2.4752 -0.5288 0.278 -0.740 -0.612 88 62 42 0 0
0.9274 2.4659 -0.5262 0.454 -0.814 0.363 86 61 41 0 0
0.9683 2.4724 -0.5216 -0.016 -0.828 -0.560 93 66 44 0 0
0.9769 2.4715 -0.5201 -0.188 -0.842 -0.505 92 65 44 0 0
0.9808 2.4689 -0.5189 0.558 -0.791 -0.249 89 64 43 0 0
0.9864 2.4750 -0.5195 0.443 -0.820 -0.363 74 54 36 0 0
0.9910 2.4759 -0.5190 0.161 -0.889 -0.429 69 50 35 0 0
0.9955 2.4765 -0.5185 0.161 -0.889 -0.429 68 50 34 0 0
1.0008 2.4808 -0.5187 -0.014 -0.841 -0.541 66 49 33 0 0
1.0376 2.4691 -0.5104 -0.442 -0.879 0.180 66 48 34 0 0
1.0414 2.4666 -0.5093 0.214 -0.963 0.163 67 49 35 0 0
1.0462 2.4688 -0.5091 -0.204 -0.950 -0.238 68 51 35 0 0
1.1246 2.5221 -0.5100 -0.938 -0.324 -0.123 43 36 32 0 0
1.1270 2.5144 -0.5078 -0.938 -0.324 -0.123 42 34 30 0 0
1.1392 2.4786 -0.4975 -0.935 -0.341 -0.094 103 73 48 0 0
1.1543 2.5187 -0.5048 0.255 -0.913 -0.318 105 75 48 0 0
1.2568 2.3503 -0.4493 -0.120 -0.539 -0.834 106 78 54 0 0
1.2582 2.3427 -0.4473 -0.259 -0.520 -0.814 105 77 53 0 0
1.2627 2.3444 -0.4470 -0.412 -0.479 -0.775 103 75 51 0 0
1.2658 2.3420 -0.4460 -0.287 -0.397 -0.872 103 75 51 0 0
-1.3035 2.2240 -0.8078 0.066 -0.884 -0.463 112 87 64 0 0
-1.3008 2.2279 -0.8083 -0.328 -0.846 -0.421 114 88 66 0 0
-1.1823 2.3509 -0.8201 0.678 -0.415 -0.607 67 53 39 0 0
-1.1797 2.3557 -0.8208 0.649 -0.450 -0.614 64 51 38 0 0
-1.1771 2.3603 -0.8216 0.468 -0.589 -0.659 63 51 37 0 0
-1.1867 2.3822 -0.8283 0.461 -0.701 -0.544 60 48 36 0 0
-1.2212 2.4390 -0.8471 -0.300 -0.722 -0.624 56 45 33 0 0
-0.9041 2.4446 -0.8008 -0.134 -0.442 -0.887 53 43 37 0 0
-0.8302 2.4818 -0.7986 -0.582 -0.409 0.702 184 166 144 0 0
-0.6816 2.2461 -0.7197 -0.229 -0.969 0.091 244 239 239 0 0
-0.6762 2.2461 -0.7189 -0.065 -0.986 0.154 254 252 251 0 0
-0.5439 2.2899 -0.7096 0.484 -0.511 -0.711 255 255 255 0 0
-0.5404 2.2938 -0.7100 0.484 -0.511 -0.711 255 255 255 0 0
-0.5283 2.2787 -0.7045 0.979 -0.201 0.039 255 255 255 0 0
-0.4288 2.3032 -0.6955 -0.470 -0.603 -0.645 217 215 213 0 0
-0.4260 2.3091 -0.6965 -0.606 -0.586 0.537 193 190 189 0 0
-0.4146 2.2937 -0.6911 -0.340 -0.850 0.401 126 120 119 0 0
-0.4026 2.2897 -0.6883 0.215 -0.329 0.919 74 65 67 0 0
-0.3668 2.4646 -0.7249 -0.369 -0.485 -0.793 118 116 114 0 0
-0.3011 2.4306 -0.7069 -0.067 -0.685 -0.726 55 49 49 0 0
-0.2963 2.4322 -0.7066 -0.406 -0.702 -0.585 55 49 48 0 0
-0.2948 2.4441 -0.7092 -0.397 -0.705 -0.588 55 49 48 0 0
-0.2817 2.4881 -0.7178 0.899 -0.413 -0.147 72 67 64 0 0
-0.2810 2.5030 -0.7213 0.899 -0.428 -0.092 76 68 66 0 0
-0.2794 2.5157 -0.7241 0.706 -0.656 -0.265 81 70 64 0 0
-0.2753 2.5204 -0.7246 0.660 -0.714 -0.231 92 72 56 0 0
-0.2709 2.5239 -0.7247 0.254 -0.898 -0.360 97 75 54 0 0
-0.2641 2.5198 -0.7227 -0.003 -0.915 -0.404 97 76 55 0 0
-0.1493 2.1878 -0.6258 0.996 0.054 0.067 97 76 55 0 0
-0.1500 2.2063 -0.6303 0.996 0.054 0.067 97 76 53 0 0
-0.1507 2.2252 -0.6350 0.996 0.054 0.067 97 77 53 0 0
0.0456 2.2161 -0.6033 0.999 0.033 0.005 78 62 50 0 0
0.0446 2.2439 -0.6101 0.999 0.035 -0.001 64 52 43 0 0
0.0437 2.2719 -0.6170 0.999 0.034 0.026 78 68 64 0 0
0.0435 2.2976 -0.6232 0.999 0.017 0.034 129 122 121 0 0
0.0439 2.3200 -0.6285 0.998 -0.023 -0.062 102 98 94 0 0
0.1280 2.2474 -0.5985 0.921 -0.034 -0.389 63 52 42 0 0
0.1274 2.2798 -0.6063 0.998 -0.056 0.016 63 52 42 0 0
0.1266 2.3142 -0.6147 0.955 -0.117 -0.272 62 52 42 0 0
0.1298 2.3244 -0.6167 0.984 -0.084 -0.157 62 53 42 0 0
0.1837 2.3861 -0.6234 0.421 -0.432 -0.798 61 53 44 0 0
0.1985 2.3078 -0.6024 -0.058 -0.867 -0.495 44 38 33 0 0
0.2245 2.3265 -0.6030 0.601 -0.082 0.795 45 41 36 0 0
0.2367 2.3011 -0.5950 0.967 -0.204 -0.155 43 40 35 0 0
0.2396 2.3173 -0.5985 0.967 -0.204 -0.155 44 40 36 0 0
0.2429 2.3298 -0.6010 0.968 -0.205 -0.142 46 43 38 0 0
0.2474 2.3316 -0.6007 0.958 -0.154 0.242 49 46 41 0 0
0.2629 2.3176 -0.5951 0.784 -0.458 -0.420 54 50 47 0 0
0.2664 2.3299 -0.5975 0.932 -0.294 -0.211 59 54 51 0 0
0.2699 2.3416 -0.5998 0.930 -0.258 -0.261 60 54 52 0 0
0.2799 2.3352 -0.5967 0.040 -0.814 -0.580 60 55 52 0 0
0.2899 2.3282 -0.5936 0.766 -0.342 -0.544 61 56 53 0 0
0.2935 2.3401 -0.5959 0.766 -0.342 -0.544 61 56 53 0 0
0.2978 2.3455 -0.5965 0.873 -0.331 -0.359 63 58 55 0 0
0.3016 2.3560 -0.5985 0.883 -0.340 -0.322 63 55 52 0 0
0.3164 2.3471 -0.5941 -0.223 -0.611 -0.760 63 58 55 0 0
0.3267 2.3325 -0.5891 0.743 -0.324 -0.585 60 55 52 0 0
0.3305 2.3459 -0.5917 0.743 -0.324 -0.585 65 58 55 0 0
0.3342 2.3596 -0.5944 0.620 -0.361 -0.697 63 57 54 0 0
0.3560 2.2297 -0.5600 0.818 -0.253 0.517 59 55 54 0 0
0.3599 2.2385 -0.5615 0.816 -0.257 0.518 58 55 54 0 0
0.3638 2.2477 -0.5631 0.816 -0.257 0.518 55 54 52 0 0
0.3678 2.2560 -0.5645 0.794 -0.283 0.538 55 52 51 0 0
0.3718 2.2645 -0.5660 0.794 -0.283 0.538 53 51 51 0 0
0.3758 2.2737 -0.5676 0.785 -0.279 0.554 52 50 50 0 0
0.3800 2.2803 -0.5685 0.834 -0.254 0.489 57 53 52 0 0
0.5444 2.4938 -0.5951 0.440 -0.152 0.885 41 33 26 0 0
0.5494 2.5029 -0.5965 0.426 -0.132 0.895 39 32 26 0 0
0.5576 2.4544 -0.5837 0.418 -0.684 -0.598 41 34 27 0 0
0.5623 2.4560 -0.5833 0.358 -0.611 -0.706 40 34 27 0 0
0.6047 2.4628 -0.5786 0.291 -0.300 0.909 73 67 57 0 0
0.6096 2.4669 -0.5788 0.281 -0.304 0.910 77 72 63 0 0
0.6146 2.4732 -0.5796 0.238 -0.361 0.902 74 69 63 0 0
0.6436 2.4888 -0.5790 0.507 -0.808 -0.300 57 48 38 0 0
0.6488 2.4963 -0.5800 -0.100 -0.902 -0.420 37 30 24 0 0
0.8470 2.4619 -0.5420 -0.188 -0.363 0.913 87 72 58 0 0
0.8910 2.4323 -0.5283 -0.817 -0.361 0.450 83 60 40 0 0
0.8990 2.4536 -0.5322 0.057 -0.132 0.990 82 60 39 0 0
0.9695 2.4762 -0.5270 -0.297 -0.745 -0.598 125 100 74 0 0
0.9757 2.4633 -0.5230 0.717 -0.649 -0.256 94 66 46 0 0
0.9814 2.4699 -0.5237 0.717 -0.649 -0.256 88 63 42 0 0
0.9874 2.4779 -0.5247 0.443 -0.820 -0.363 74 53 35 0 0
0.9915 2.4763 -0.5238 -0.145 -0.824 -0.547 70 50 35 0 0
0.9947 2.4709 -0.5220 -0.548 -0.661 -0.513 71 50 35 0 0
1.0020 2.4846 -0.5242 0.163 -0.830 -0.533 68 49 34 0 0
1.0335 2.4687 -0.5156 -0.484 -0.871 0.091 67 50 34 0 0
1.0379 2.4687 -0.5150 -0.474 -0.815 0.333 67 49 34 0 0
1.0423 2.4691 -0.5144 -0.065 -0.951 0.303 68 50 36 0 0
1.0467 2.4694 -0.5138 -0.223 -0.965 -0.142 68 49 35 0 0
1.0657 2.4585 -0.5083 -0.631 -0.765 -0.130 55 43 31 0 0
1.1223 2.5288 -0.5167 -0.914 -0.371 -0.165 43 36 28 0 0
1.1276 2.5151 -0.5126 -0.939 -0.317 -0.135 39 33 26 0 0
1.1369 2.4848 -0.5039 -0.936 -0.328 -0.124 103 71 47 0 0
1.1427 2.4904 -0.5044 -0.827 -0.561 -0.025 106 75 51 0 0
-1.3053 2.2271 -0.8140 0.066 -0.884 -0.463 113 89 65 0 0
-1.3039 2.2324 -0.8150 -0.316 -0.844 -0.433 112 86 63 0 0
-1.1843 2.3546 -0.8266 0.688 -0.355 -0.633 69 55 40 0 0
-1.1818 2.3594 -0.8274 0.717 -0.355 -0.599 66 52 39 0 0
-1.1801 2.3654 -0.8286 0.395 -0.618 -0.679 64 51 37 0 0
-1.1888 2.3859 -0.8349 0.410 -0.734 -0.542 61 49 36 0 0
-1.1827 2.3859 -0.8340 -0.037 -0.750 -0.661 59 46 37 0 0
-0.9060 2.4696 -0.8126 -0.123 -0.437 -0.891 58 45 40 0 0
-0.5739 2.2322 -0.7051 0.272 -0.946 -0.175 254 254 254 0 0
-0.5693 2.2334 -0.7047 0.272 -0.946 -0.175 254 254 254 0 0
-0.5639 2.2331 -0.7038 -0.345 -0.937 0.047 254 254 254 0 0
-0.5230 2.3035 -0.7147 0.983 -0.153 0.104 255 255 255 0 0
-0.4592 2.3404 -0.7140 0.411 -0.878 -0.247 254 254 254 0 0
-0.4120 2.2886 -0.6943 -0.342 -0.553 -0.760 236 234 234 0 0
-0.4079 2.2913 -0.6944 -0.377 -0.792 -0.481 199 196 196 0 0
-0.4017 2.2887 -0.6928 -0.192 -0.836 -0.515 163 157 157 0 0
-0.3784 2.4990 -0.7402 -0.402 -0.483 -0.778 64 60 59 0 0
-0.3513 2.4530 -0.7250 -0.381 -0.479 -0.791 59 52 53 0 0
-0.2798 2.4665 -0.7175 0.943 -0.308 -0.129 69 64 62 0 0
-0.2756 2.4878 -0.7220 0.957 -0.268 -0.110 76 68 65 0 0
-0.2773 2.5107 -0.7278 0.953 -0.295 -0.070 82 70 66 0 0
-0.2744 2.5191 -0.7294 0.913 -0.374 -0.163 91 72 56 0 0
-0.2701 2.5231 -0.7298 0.337 -0.832 -0.441 96 75 54 0 0
-0.2653 2.5254 -0.7296 0.232 -0.826 -0.514 96 76 54 0 0
-0.2115 2.3819 -0.6867 0.748 -0.620 0.236 94 76 54 0 0
-0.1490 2.1885 -0.6305 0.996 0.054 0.067 96 75 54 0 0
-0.1497 2.2070 -0.6351 0.996 0.054 0.067 97 76 54 0 0
0.0454 2.2191 -0.6086 1.000 0.026 -0.015 80 63 51 0 0
0.0445 2.2467 -0.6155 0.999 0.035 -0.001 75 61 50 0 0
0.0435 2.2753 -0.6225 0.999 0.032 -0.008 68 55 46 0 0
0.0434 2.3002 -0.6286 1.000 0.005 0.008 65 54 46 0 0
0.0436 2.3240 -0.6343 1.000 -0.013 -0.025 65 52 44 0 0
0.1196 2.3015 -0.6174 0.903 -0.062 -0.425 61 51 39 0 0
0.1258 2.3225 -0.6216 1.000 -0.016 0.021 62 52 41 0 0
0.2260 2.3168 -0.6051 0.596 -0.077 0.799 45 42 37 0 0
0.2297 2.3257 -0.6067 0.603 -0.075 0.794 44 40 36 0 0
0.2662 2.3360 -0.6037 0.949 -0.315 0.001 45 39 36 0 0
0.2712 2.3331 -0.6022 -0.396 -0.886 -0.241 47 40 37 0 0
0.2762 2.3298 -0.6007 -0.291 -0.874 -0.390 46 41 38 0 0
0.2804 2.3349 -0.6013 -0.200 -0.951 -0.238 47 42 39 0 0
0.3119 2.3496 -0.6001 0.389 -0.459 0.799 44 39 35 0 0
0.3302 2.3559 -0.5989 0.909 -0.394 -0.138 40 34 31 0 0
0.3344 2.3632 -0.6000 0.870 -0.399 -0.290 43 37 34 0 0
0.3384 2.3742 -0.6021 0.863 -0.382 -0.331 43 38 35 0 0
0.3428 2.3789 -0.6025 0.713 -0.539 -0.448 44 40 37 0 0
0.5365 2.5522 -0.6154 0.731 -0.528 -0.432 52 44 38 0 0
0.5415 2.5556 -0.6154 0.517 -0.489 -0.703 54 46 37 0 0
0.5496 2.4935 -0.5991 0.447 -0.091 0.890 61 49 40 0 0
0.5546 2.4993 -0.5998 0.443 -0.093 0.891 65 51 41 0 0
0.5676 2.4616 -0.5887 0.661 -0.559 -0.500 66 52 37 0 0
0.6100 2.4670 -0.5836 0.346 -0.678 0.649 55 45 33 0 0
0.6150 2.4721 -0.5841 0.333 -0.794 0.509 49 41 32 0 0
0.6445 2.4956 -0.5854 0.359 -0.799 -0.483 54 45 35 0 0
0.6494 2.4987 -0.5854 -0.100 -0.902 -0.420 39 33 25 0 0
0.6841 2.5219 -0.5858 -0.061 -0.461 0.885 98 72 48 0 0
0.8680 2.4508 -0.5409 -0.197 -0.463 0.864 230 227 222 0 0
0.8723 2.4503 -0.5401 -0.197 -0.463 0.864 204 200 196 0 0
0.8871 2.4331 -0.5337 -0.858 -0.355 0.371 79 58 38 0 0
0.8905 2.4268 -0.5317 -0.879 -0.380 0.290 81 58 38 0 0
0.9706 2.4802 -0.5325 -0.422 -0.697 -0.579 107 77 51 0 0
0.9773 2.4694 -0.5289 0.755 -0.625 -0.198 93 66 44 0 0
0.9824 2.4732 -0.5291 0.717 -0.649 -0.256 88 63 42 0 0
0.9884 2.4807 -0.5300 0.443 -0.820 -0.363 76 56 39 0 0
0.9927 2.4801 -0.5292 -0.071 -0.838 -0.542 69 50 35 0 0
1.0006 2.4760 -0.5270 -0.609 -0.608 -0.509 69 50 35 0 0
1.0336 2.4673 -0.5199 -0.353 -0.936 -0.001 66 48 34 0 0
1.0377 2.4663 -0.5191 -0.275 -0.961 0.035 66 48 34 0 0
1.0427 2.4691 -0.5190 0.061 -0.984 -0.165 67 49 34 0 0
1.0474 2.4707 -0.5187 -0.263 -0.945 -0.196 66 48 34 0 0
1.0662 2.4588 -0.5130 -0.560 -0.820 -0.122 54 42 30 0 0
1.1229 2.5296 -0.5216 -0.914 -0.371 -0.165 42 35 27 0 0
1.1374 2.4852 -0.5086 -0.936 -0.328 -0.124 105 71 47 0 0
1.3389 2.4584 -0.4718 -0.402 -0.224 -0.888 101 75 52 0 0
1.3448 2.4636 -0.4722 -0.261 -0.327 -0.908 100 75 51 0 0
-1.2217 1.9667 -0.7429 0.300 -0.826 -0.477 185 145 99 0 0
-1.2110 1.9725 -0.7427 0.826 -0.469 -0.313 184 168 151 0 0
-1.3584 2.2852 -0.8413 -0.474 -0.751 -0.459 114 90 67 0 0
-1.2995 2.2351 -0.8202 -0.489 -0.770 -0.411 108 84 64 0 0
-1.1883 2.3610 -0.8341 0.682 -0.432 -0.590 71 57 41 0 0
-1.1851 2.3650 -0.8346 0.699 -0.424 -0.576 67 54 39 0 0
-1.1864 2.3752 -0.8373 0.240 -0.837 -0.492 66 52 39 0 0
-1.1874 2.3935 -0.8419 0.075 -0.794 -0.603 60 48 36 0 0
-1.1887 2.4039 -0.8447 0.090 -0.780 -0.619 59 47 35 0 0
-0.9634 2.5281 -0.8410 0.596 -0.179 -0.783 116 103 93 0 0
-0.7045 2.2611 -0.7367 -0.720 -0.682 -0.129 181 160 137 0 0
-0.5849 2.2346 -0.7122 0.102 -0.995 0.015 250 249 251 0 0
-0.5799 2.2349 -0.7115 0.165 -0.980 0.111 251 250 251 0 0
-0.5737 2.2329 -0.7101 0.001 -0.988 -0.154 254 253 254 0 0
-0.5684 2.2328 -0.7092 0.001 -0.988 -0.154 254 254 254 0 0
-0.4767 2.2831 -0.7077 0.265 -0.953 -0.148 255 255 255 0 0
-0.4773 2.2965 -0.7110 -0.409 -0.827 -0.385 255 255 255 0 0
-0.4504 2.2824 -0.7035 -0.068 -0.997 0.027 255 255 255 0 0
-0.4513 2.2970 -0.7072 0.805 -0.013 0.593 255 255 255 0 0
-0.4500 2.3066 -0.7094 0.831 -0.003 0.556 255 255 255 0 0
-0.4391 2.3314 -0.7138 -0.452 -0.580 -0.677 252 252 252 0 0
-0.4190 2.3074 -0.7049 -0.342 -0.553 -0.760 253 253 253 0 0
-0.4096 2.2970 -0.7009 -0.312 -0.546 -0.777 237 235 236 0 0
-0.4010 2.2882 -0.6975 -0.298 -0.572 -0.764 235 233 234 0 0
-0.3967 2.2905 -0.6974 0.531 -0.832 0.158 177 172 172 0 0
-0.3626 2.4871 -0.7402 -0.381 -0.479 -0.791 62 56 55 0 0
-0.3487 2.4628 -0.7322 -0.381 -0.479 -0.791 61 55 53 0 0
0.0452 2.2225 -0.6141 0.999 0.025 -0.029 75 58 48 0 0
0.0443 2.2501 -0.6210 0.999 0.031 -0.035 73 59 48 0 0
0.0433 2.2790 -0.6281 0.999 0.028 -0.031 74 60 49 0 0
0.0432 2.3035 -0.6341 0.999 -0.010 -0.050 72 60 46 0 0
0.0435 2.3269 -0.6398 1.000 -0.013 -0.025 72 60 45 0 0
0.1765 2.4110 -0.6403 0.474 -0.704 -0.529 54 46 36 0 0
0.1807 2.4164 -0.6410 0.665 -0.509 -0.547 57 49 42 0 0
0.1987 2.3138 -0.6132 0.607 -0.645 0.464 95 89 85 0 0
0.2034 2.3131 -0.6123 0.558 -0.793 -0.244 131 126 122 0 0
0.2073 2.3204 -0.6135 0.877 -0.302 -0.373 99 95 91 0 0
0.2105 2.3328 -0.6161 0.877 -0.302 -0.373 105 102 98 0 0
0.2208 2.3255 -0.6127 -0.644 -0.507 0.573 108 104 101 0 0
0.2700 2.3506 -0.6114 0.810 -0.281 -0.515 76 74 71 0 0
0.2763 2.3333 -0.6062 -0.173 -0.803 -0.570 72 70 67 0 0
0.2807 2.3369 -0.6064 -0.140 -0.847 -0.514 70 67 65 0 0
0.3083 2.3417 -0.6034 -0.225 -0.973 -0.056 53 48 45 0 0
0.3128 2.3439 -0.6033 0.168 -0.655 0.737 49 45 42 0 0
0.3175 2.3439 -0.6026 0.294 -0.313 0.903 48 44 41 0 0
0.3225 2.3397 -0.6008 0.943 -0.308 0.126 47 42 39 0 0
0.3263 2.3508 -0.6029 0.943 -0.308 0.126 43 38 35 0 0
0.3304 2.3600 -0.6046 0.929 -0.314 0.198 45 38 36 0 0
0.3345 2.3693 -0.6062 0.926 -0.351 0.139 43 37 34 0 0
0.3386 2.3785 -0.6079 0.875 -0.483 0.025 42 38 35 0 0
0.3429 2.3847 -0.6087 0.759 -0.647 0.068 40 36 33 0 0
0.3473 2.3903 -0.6094 0.734 -0.654 -0.184 39 35 32 0 0
0.3517 2.3959 -0.6101 0.778 -0.575 -0.253 39 35 32 0 0
0.3612 2.3961 -0.6087 0.107 -0.551 0.827 39 35 32 0 0
0.3662 2.3915 -0.6069 -0.442 -0.746 0.498 39 35 32 0 0
0.3828 2.3371 -0.5911 0.666 -0.333 -0.668 40 35 32 0 0
0.3868 2.3504 -0.5937 0.666 -0.333 -0.668 39 35 32 0 0
0.4829 2.4840 -0.6118 0.130 -0.105 0.986 80 79 76 0 0
0.4877 2.4949 -0.6138 0.346 -0.086 0.934 80 80 78 0 0
0.4926 2.5025 -0.6149 0.365 -0.086 0.927 102 103 98 0 0
0.5270 2.5424 -0.6194 0.767 -0.450 -0.457 83 82 78 0 0
0.5321 2.5528 -0.6212 0.767 -0.450 -0.457 90 87 83 0 0
0.5372 2.5634 -0.6230 0.767 -0.450 -0.457 91 88 83 0 0
0.5498 2.4839 -0.6017 0.434 -0.114 0.894 51 42 33 0 0
0.5547 2.4861 -0.6015 0.496 -0.089 0.864 57 46 36 0 0
0.6107 2.4715 -0.5895 0.301 -0.953 -0.014 66 53 39 0 0
0.6155 2.4734 -0.5892 0.284 -0.949 0.140 53 44 35 0 0
0.6203 2.4754 -0.5890 0.222 -0.957 0.185 42 37 30 0 0
0.6451 2.4988 -0.5909 0.438 -0.769 -0.465 51 41 34 0 0
0.6500 2.5009 -0.5907 -0.259 -0.857 -0.445 39 31 25 0 0
0.8397 2.4373 -0.5466 0.167 -0.267 0.949 87 70 54 0 0
0.8451 2.4437 -0.5473 0.078 -0.297 0.952 86 72 56 0 0
0.8498 2.4457 -0.5471 -0.023 -0.332 0.943 91 82 71 0 0
0.8546 2.4479 -0.5469 0.060 -0.397 0.916 113 104 96 0 0
0.8716 2.4436 -0.5433 -0.359 -0.431 0.828 225 222 218 0 0
0.8932 2.4150 -0.5330 -0.892 -0.430 -0.139 81 59 38 0 0
0.9715 2.4826 -0.5377 -0.731 -0.502 -0.462 97 67 45 0 0
0.9782 2.4722 -0.5342 0.755 -0.625 -0.198 94 68 45 0 0
0.9835 2.4765 -0.5344 0.717 -0.649 -0.256 90 63 42 0 0
0.9893 2.4832 -0.5352 0.423 -0.826 -0.373 78 56 38 0 0
0.9936 2.4825 -0.5344 -0.149 -0.811 -0.566 70 50 35 0 0
1.0349 2.4713 -0.5254 -0.602 -0.730 -0.324 65 48 33 0 0
1.0379 2.4653 -0.5235 -0.084 -0.988 -0.130 65 47 32 0 0
1.0431 2.4693 -0.5236 0.169 -0.956 -0.241 65 48 32 0 0
1.0480 2.4717 -0.5235 -0.217 -0.953 -0.212 65 47 32 0 0
1.0631 2.4621 -0.5189 -0.780 -0.622 -0.067 55 42 30 0 0
1.0675 2.4628 -0.5184 -0.127 -0.992 -0.014 53 41 29 0 0
1.1357 2.4936 -0.5156 -0.929 -0.333 -0.160 107 75 51 0 0
1.1382 2.4870 -0.5136 -0.933 -0.349 -0.087 104 71 47 0 0
1.2108 2.4724 -0.4991 0.547 -0.654 -0.522 106 76 50 0 0
-1.1305 1.7576 -0.6822 0.820 -0.487 -0.301 184 167 147 0 0
-1.3056 2.2433 -0.8283 -0.507 -0.763 -0.401 109 86 63 0 0
-1.1887 2.3626 -0.8399 0.624 -0.573 -0.530 70 57 41 0 0
-1.1881 2.3701 -0.8417 -0.257 -0.810 -0.527 68 55 39 0 0
-1.1659 2.3559 -0.8348 0.226 -0.865 -0.448 64 52 39 0 0
-1.1619 2.3586 -0.8349 0.037 -0.959 -0.283 61 49 37 0 0
-1.1938 2.4120 -0.8529 0.344 -0.756 -0.556 59 47 35 0 0
-1.2400 2.4860 -0.8781 -0.343 -0.872 -0.348 58 46 34 0 0
-1.1645 2.4137 -0.8489 -0.474 -0.872 -0.119 52 42 32 0 0
-0.8064 2.4412 -0.8014 -0.664 -0.420 0.618 169 146 120 0 0
-0.7034 2.2602 -0.7413 -0.724 -0.683 -0.099 177 154 130 0 0
-0.5734 2.2335 -0.7150 -0.053 -0.989 -0.138 250 247 246 0 0
-0.5682 2.2336 -0.7142 0.001 -0.988 -0.154 253 252 251 0 0
-0.5399 2.2285 -0.7087 0.147 -0.977 -0.156 254 254 254 0 0
-0.5350 2.2291 -0.7081 0.147 -0.977 -0.156 254 254 254 0 0
-0.5301 2.2296 -0.7075 0.104 -0.979 -0.173 254 254 254 0 0
-0.4527 2.2893 -0.7105 0.737 -0.385 -0.555 255 255 255 0 0
-0.4454 2.2843 -0.7081 0.813 -0.492 -0.311 255 255 255 0 0
-0.3960 2.2901 -0.7021 0.531 -0.832 0.158 243 241 243 0 0
-0.3887 2.2847 -0.6997 0.407 -0.897 -0.174 210 207 208 0 0
-0.3274 2.2571 -0.6836 0.147 -0.191 0.971 249 246 245 0 0
-0.3204 2.2656 -0.6846 0.254 -0.153 0.955 243 243 240 0 0
-0.3749 2.5241 -0.7565 -0.401 -0.474 -0.784 68 62 61 0 0
-0.2788 2.3062 -0.6883 0.077 -0.668 -0.740 58 53 50 0 0
-0.2085 2.3931 -0.6990 0.697 -0.590 -0.408 93 75 53 0 0
-0.1482 2.2052 -0.6437 0.998 0.059 -0.007 91 73 51 0 0
0.0446 2.2512 -0.6258 0.999 0.035 0.002 75 61 49 0 0
0.0434 2.2808 -0.6333 0.999 0.032 0.007 77 63 52 0 0
0.0435 2.3047 -0.6391 1.000 0.010 -0.005 67 55 42 0 0
0.0438 2.3278 -0.6448 1.000 -0.012 -0.021 67 56 42 0 0
0.1754 2.4229 -0.6483 -0.175 -0.882 -0.438 57 48 37 0 0
0.1808 2.4199 -0.6467 0.385 -0.867 -0.317 57 48 38 0 0
0.1987 2.3173 -0.6187 0.710 -0.599 -0.371 56 48 39 0 0
0.2024 2.3255 -0.6202 0.762 -0.569 -0.311 62 56 49 0 0
0.2066 2.3291 -0.6204 0.528 -0.664 -0.529 59 53 47 0 0
0.2101 2.3398 -0.6225 0.877 -0.302 -0.373 58 52 46 0 0
0.2219 2.3196 -0.6158 -0.612 -0.524 0.593 63 57 52 0 0
0.2305 2.2854 -0.6061 0.927 -0.226 -0.299 65 60 55 0 0
0.2334 2.3009 -0.6095 0.927 -0.231 -0.295 68 63 58 0 0
0.2694 2.3622 -0.6191 0.938 -0.250 -0.241 115 114 111 0 0
0.2946 2.3437 -0.6107 0.933 -0.359 -0.011 129 125 122 0 0
0.2984 2.3539 -0.6126 0.933 -0.359 -0.011 123 119 116 0 0
0.3130 2.3471 -0.6088 -0.323 -0.272 0.907 121 117 115 0 0
0.3438 2.3771 -0.6115 0.631 -0.733 0.254 100 96 93 0 0
0.3482 2.3823 -0.6121 0.754 -0.591 0.287 96 93 90 0 0
0.3670 2.3845 -0.6098 -0.528 -0.835 -0.159 79 79 74 0 0
0.3713 2.3922 -0.6110 -0.608 -0.793 0.029 87 88 83 0 0
0.3824 2.3544 -0.6000 0.666 -0.333 -0.668 91 94 90 0 0
0.3865 2.3679 -0.6028 0.666 -0.333 -0.668 89 89 86 0 0
0.3906 2.3816 -0.6055 0.666 -0.333 -0.668 83 83 80 0 0
0.4500 2.4559 -0.6148 0.178 -0.267 0.947 46 43 38 0 0
0.4547 2.4593 -0.6149 -0.165 -0.194 0.967 47 44 41 0 0
0.4691 2.4585 -0.6126 -0.107 -0.185 0.977 69 68 64 0 0
0.4738 2.4665 -0.6138 0.019 -0.145 0.989 86 85 81 0 0
0.4786 2.4719 -0.6144 0.063 -0.125 0.990 94 93 89 0 0
0.4834 2.4718 -0.6137 0.072 -0.129 0.989 96 97 93 0 0
0.4881 2.4810 -0.6152 0.346 -0.086 0.934 109 110 105 0 0
0.4930 2.4887 -0.6164 0.354 -0.089 0.931 122 123 117 0 0
0.4974 2.4154 -0.5976 -0.565 -0.535 0.629 137 138 133 0 0
0.5022 2.4287 -0.6002 -0.347 -0.234 0.908 141 142 137 0 0
0.5455 2.4819 -0.6067 0.351 -0.182 0.919 104 101 92 0 0
0.5504 2.4880 -0.6075 0.263 -0.187 0.947 98 94 86 0 0
0.5553 2.4933 -0.6081 0.190 -0.253 0.949 74 66 58 0 0
0.5602 2.4984 -0.6086 0.023 -0.438 0.899 51 41 32 0 0
0.5649 2.4967 -0.6074 -0.046 -0.576 0.816 61 47 36 0 0
0.5696 2.4936 -0.6060 0.477 -0.453 0.753 69 54 37 0 0
0.5740 2.4839 -0.6029 -0.604 -0.678 -0.419 71 56 36 0 0
0.5785 2.4787 -0.6010 -0.604 -0.678 -0.419 72 57 38 0 0
0.5830 2.4726 -0.5988 -0.776 -0.621 0.111 72 57 38 0 0
0.5877 2.4709 -0.5977 -0.578 -0.750 -0.321 73 58 39 0 0
0.5922 2.4683 -0.5963 -0.523 -0.688 -0.503 74 59 40 0 0
0.6059 2.4612 -0.5925 0.487 -0.789 -0.375 72 56 40 0 0
0.6108 2.4641 -0.5925 0.487 -0.789 -0.375 70 54 39 0 0
0.6162 2.4789 -0.5953 -0.098 -0.891 -0.443 52 44 34 0 0
0.6208 2.4779 -0.5944 -0.098 -0.891 -0.443 41 36 31 0 0
0.6256 2.4784 -0.5938 -0.075 -0.827 -0.558 34 29 25 0 0
0.6459 2.5031 -0.5968 0.359 -0.799 -0.483 42 34 27 0 0
0.6506 2.5038 -0.5962 -0.271 -0.840 -0.470 39 31 26 0 0
0.8434 2.4300 -0.5489 0.048 -0.234 0.971 86 71 55 0 0
0.8483 2.4332 -0.5489 0.083 -0.250 0.965 93 82 72 0 0
0.8529 2.4346 -0.5485 0.173 -0.257 0.951 104 96 91 0 0
0.8711 2.4378 -0.5466 -0.332 -0.442 0.834 248 246 244 0 0
0.8754 2.4373 -0.5458 -0.008 -0.382 0.924 177 174 168 0 0
0.8935 2.4146 -0.5375 -0.907 -0.420 0.014 81 59 38 0 0
0.9771 2.4863 -0.5425 -0.370 -0.697 -0.614 95 67 45 0 0
0.9787 2.4724 -0.5388 0.729 -0.648 -0.222 95 68 47 0 0
0.9845 2.4792 -0.5396 0.729 -0.648 -0.222 90 64 42 0 0
0.9903 2.4861 -0.5404 0.423 -0.826 -0.373 78 56 37 0 0
0.9978 2.4800 -0.5378 -0.488 -0.669 -0.560 70 51 36 0 0
1.0025 2.4815 -0.5375 -0.413 -0.700 -0.583 69 51 36 0 0
1.0333 2.4625 -0.5281 -0.312 -0.912 0.267 64 47 31 0 0
1.0384 2.4658 -0.5281 -0.066 -0.976 -0.208 66 48 33 0 0
1.0430 2.4673 -0.5278 0.404 -0.824 -0.398 64 47 32 0 0
1.0479 2.4696 -0.5277 0.404 -0.824 -0.398 65 47 34 0 0
